18.399990 6.288413 6.371219 255 255 0 
18.399990 6.495559 6.368845 255 255 0 
18.399992 6.704176 6.366386 255 255 0 
18.399992 6.914331 6.363839 255 255 0 
18.399988 7.126071 6.361203 255 255 0 
18.399990 7.339467 6.358477 255 255 0 
18.399990 7.554581 6.355659 255 255 0 
18.399988 7.771476 6.352746 255 255 0 
18.399990 7.990222 6.349740 255 255 0 
18.399988 8.210886 6.346634 255 255 0 
18.399988 8.433530 6.343430 255 255 0 
18.399988 8.658237 6.340125 255 255 0 
18.399988 8.885084 6.336716 255 255 0 
18.399988 9.114136 6.333202 255 255 0 
18.399988 9.345483 6.329580 255 255 0 
18.399988 9.579200 6.325847 255 255 0 
18.399988 9.815375 6.322002 255 255 0 
18.399988 10.054099 6.318041 255 255 0 
18.399988 10.295453 6.313963 255 255 0 
18.399988 10.539536 6.309763 255 255 0 
48.461987 -27.394648 -0.773511 255 255 0 
48.734734 -26.906452 -0.773511 255 255 0 
49.002552 -26.415535 -0.773511 255 255 0 
49.265457 -25.921957 -0.773511 255 255 0 
49.523354 -25.425758 -0.773512 255 255 0 
49.776272 -24.926987 -0.773512 255 255 0 
50.024139 -24.425737 -0.773511 255 255 0 
50.266987 -23.921991 -0.773511 255 255 0 
50.504753 -23.415840 -0.773512 255 255 0 
50.737419 -22.907316 -0.773511 255 255 0 
50.964985 -22.396484 -0.773512 255 255 0 
51.187382 -21.883415 -0.773512 255 255 0 
51.404629 -21.368120 -0.773512 255 255 0 
51.616688 -20.850666 -0.773512 255 255 0 
51.823521 -20.331099 -0.773511 255 255 0 
52.025139 -19.809490 -0.773511 255 255 0 
52.221512 -19.285883 -0.773512 255 255 0 
52.412605 -18.760351 -0.773512 255 255 0 
52.598408 -18.232895 -0.773511 255 255 0 
52.778904 -17.703608 -0.773511 255 255 0 
52.954082 -17.172529 -0.773511 255 255 0 
15.700000 -2.257615 4.821062 255 255 0 
15.700000 -2.096854 4.824165 255 255 0 
15.703863 -1.937026 4.826489 255 255 0 
15.722527 -1.779177 4.826489 255 255 0 
15.739612 -1.621149 4.826489 255 255 0 
15.755099 -1.462966 4.826489 255 255 0 
15.769001 -1.304626 4.826489 255 255 0 
15.781307 -1.146162 4.826489 255 255 0 
15.792025 -0.987575 4.826489 255 255 0 
15.801149 -0.828889 4.826489 255 255 0 
15.808681 -0.670119 4.826489 255 255 0 
15.814614 -0.511281 4.826489 255 255 0 
15.818950 -0.352392 4.826489 255 255 0 
15.821695 -0.193475 4.826489 255 255 0 
15.822839 -0.034530 4.826489 255 255 0 
15.822388 0.124418 4.826489 255 255 0 
15.820339 0.283352 4.826489 255 255 0 
15.816694 0.442257 4.826489 255 255 0 
15.811456 0.601118 4.826489 255 255 0 
15.804620 0.759918 4.826489 255 255 0 
15.796188 0.918642 4.826489 255 255 0 
15.786163 1.077272 4.826489 255 255 0 
15.774543 1.235794 4.826489 255 255 0 
15.761337 1.394192 4.826489 255 255 0 
15.746535 1.552447 4.826489 255 255 0 
15.730147 1.710548 4.826489 255 255 0 
15.712169 1.868475 4.826489 255 255 0 
15.699995 2.027164 4.825441 255 255 0 
15.699995 2.187706 4.822440 255 255 0 
15.699995 2.348706 4.819204 255 255 0 
15.699995 2.510208 4.815733 255 255 0 
15.699995 2.672221 4.812026 255 255 0 
15.699993 2.834782 4.808079 255 255 0 
15.699995 2.997949 4.803891 255 255 0 
15.699993 3.161732 4.799460 255 255 0 
15.699995 3.326178 4.794784 255 255 0 
15.699993 3.491329 4.789860 255 255 0 
15.699993 3.657216 4.784685 255 255 0 
15.699992 3.823880 4.779255 255 255 0 
15.699993 3.991364 4.773571 255 255 0 
15.699992 4.159709 4.767627 255 255 0 
15.699992 4.328943 4.761419 255 255 0 
15.699992 4.499125 4.754946 255 255 0 
15.699992 4.670297 4.748203 255 255 0 
15.699992 4.842474 4.741186 255 255 0 
15.699991 5.015749 4.733893 255 255 0 
15.699992 5.190112 4.726318 255 255 0 
15.699992 5.365647 4.718457 255 255 0 
15.699992 5.542406 4.710306 255 255 0 
15.699992 5.720415 4.701859 255 255 0 
15.699991 5.899717 4.693112 255 255 0 
15.699991 6.080391 4.684062 255 255 0 
15.699992 6.262474 4.674700 255 255 0 
15.699990 6.446030 4.665022 255 255 0 
15.699990 6.631098 4.655023 255 255 0 
15.699990 6.817737 4.644695 255 255 0 
15.699991 7.006019 4.634033 255 255 0 
15.699988 7.195995 4.623031 255 255 0 
15.699988 7.387732 4.611679 255 255 0 
15.699988 7.581284 4.599974 255 255 0 
15.699990 7.776739 4.587905 255 255 0 
15.699987 7.974139 4.575467 255 255 0 
15.699987 8.173544 4.562649 255 255 0 
15.699987 8.375075 4.549444 255 255 0 
15.699987 8.578766 4.535844 255 255 0 
15.699987 8.784703 4.521838 255 255 0 
15.699987 8.992972 4.507418 255 255 0 
27.316977 -15.441774 -0.773511 255 255 0 
27.470722 -15.166583 -0.773511 255 255 0 
27.621691 -14.889868 -0.773511 255 255 0 
27.769867 -14.611644 -0.773511 255 255 0 
27.915243 -14.331949 -0.773511 255 255 0 
28.057808 -14.050807 -0.773511 255 255 0 
28.197529 -13.768260 -0.773510 255 255 0 
28.334415 -13.484311 -0.773510 255 255 0 
28.468441 -13.199001 -0.773511 255 255 0 
28.599594 -12.912359 -0.773511 255 255 0 
28.727858 -12.624415 -0.773510 255 255 0 
28.853218 -12.335210 -0.773511 255 255 0 
28.975674 -12.044747 -0.773511 255 255 0 
29.095207 -11.753067 -0.773511 255 255 0 
29.211805 -11.460205 -0.773511 255 255 0 
29.325451 -11.166183 -0.773511 255 255 0 
29.436136 -10.871034 -0.773511 255 255 0 
29.543852 -10.574803 -0.773511 255 255 0 
29.648588 -10.277492 -0.773511 255 255 0 
29.750336 -9.979144 -0.773511 255 255 0 
29.849077 -9.679781 -0.773510 255 255 0 
29.944809 -9.379449 -0.773511 255 255 0 
30.037514 -9.078170 -0.773511 255 255 0 
30.127188 -8.775992 -0.773511 255 255 0 
30.213829 -8.472907 -0.773511 255 255 0 
30.297421 -8.168971 -0.773511 255 255 0 
30.377953 -7.864213 -0.773511 255 255 0 
30.455414 -7.558656 -0.773510 255 255 0 
30.529804 -7.252356 -0.773511 255 255 0 
30.601122 -6.945308 -0.773511 255 255 0 
30.669340 -6.637557 -0.773511 255 255 0 
30.734472 -6.329137 -0.773511 255 255 0 
30.796495 -6.020079 -0.773511 255 255 0 
30.855419 -5.710415 -0.773511 255 255 0 
30.911221 -5.400187 -0.773511 255 255 0 
13.900000 -2.284680 3.538087 255 255 0 
13.899999 -2.141512 3.543700 255 255 0 
13.900000 -1.998774 3.548942 255 255 0 
13.899999 -1.856458 3.553816 255 255 0 
13.900000 -1.714525 3.558325 255 255 0 
13.899999 -1.572944 3.562470 255 255 0 
13.899999 -1.431675 3.566255 255 255 0 
13.899998 -1.290708 3.569681 255 255 0 
13.899998 -1.150003 3.572749 255 255 0 
13.899999 -1.009537 3.575461 255 255 0 
13.899999 -0.869260 3.577819 255 255 0 
13.899998 -0.729158 3.579825 255 255 0 
13.899998 -0.589210 3.581477 255 255 0 
13.899999 -0.449388 3.582779 255 255 0 
13.899998 -0.309638 3.583730 255 255 0 
13.899998 -0.169981 3.584331 255 255 0 
13.899998 -0.030345 3.584582 255 255 0 
13.899998 0.109297 3.584483 255 255 0 
13.899998 0.248958 3.584033 255 255 0 
13.899998 0.388656 3.583235 255 255 0 
13.899998 0.528451 3.582087 255 255 0 
13.899996 0.668336 3.580586 255 255 0 
13.899996 0.808357 3.578734 255 255 0 
13.899996 0.948566 3.576530 255 255 0 
13.899998 1.088945 3.573972 255 255 0 
13.899996 1.229528 3.571058 255 255 0 
13.899996 1.370399 3.567788 255 255 0 
13.899996 1.511530 3.564160 255 255 0 
13.899996 1.652968 3.560171 255 255 0 
13.899995 1.794742 3.555821 255 255 0 
13.899996 1.936883 3.551105 255 255 0 
13.899995 2.079437 3.546024 255 255 0 
13.899995 2.222417 3.540573 255 255 0 
13.899995 2.365847 3.534749 255 255 0 
13.899995 2.509789 3.528550 255 255 0 
13.899995 2.654227 3.521972 255 255 0 
13.899995 2.799229 3.515013 255 255 0 
13.899995 2.944839 3.507668 255 255 0 
13.899995 3.091060 3.499933 255 255 0 
13.899992 3.237935 3.491805 255 255 0 
13.899994 3.385484 3.483279 255 255 0 
13.899994 3.533768 3.474349 255 255 0 
13.899994 3.682798 3.465013 255 255 0 
13.899992 3.832641 3.455262 255 255 0 
13.899992 3.983299 3.445096 255 255 0 
13.899992 4.134848 3.434505 255 255 0 
13.899992 4.287302 3.423484 255 255 0 
13.899992 4.440697 3.412029 255 255 0 
13.899992 4.595057 3.400130 255 255 0 
13.899992 4.750483 3.387784 255 255 0 
13.899992 4.906972 3.374980 255 255 0 
13.899992 5.064560 3.361714 255 255 0 
13.899992 5.223309 3.347976 255 255 0 
13.899991 5.383275 3.333760 255 255 0 
13.899991 5.544488 3.319055 255 255 0 
13.899992 5.706986 3.303856 255 255 0 
13.899991 5.870846 3.288149 255 255 0 
13.899990 6.036090 3.271928 255 255 0 
13.899991 6.202786 3.255182 255 255 0 
13.899990 6.370981 3.237900 255 255 0 
13.899990 6.540733 3.220073 255 255 0 
13.899990 6.712098 3.201687 255 255 0 
13.899990 6.885135 3.182731 255 255 0 
13.899990 7.059901 3.163194 255 255 0 
13.899990 7.236461 3.143062 255 255 0 
13.899990 7.414876 3.122323 255 255 0 
13.899990 7.595214 3.100960 255 255 0 
13.899989 7.777543 3.078962 255 255 0 
13.899990 7.961931 3.056311 255 255 0 
18.712765 -10.577972 -0.773511 255 255 0 
18.818079 -10.389462 -0.773512 255 255 0 
18.921492 -10.199903 -0.773512 255 255 0 
19.022997 -10.009315 -0.773512 255 255 0 
19.122587 -9.817716 -0.773511 255 255 0 
19.220249 -9.625129 -0.773511 255 255 0 
19.315958 -9.431577 -0.773511 255 255 0 
19.409725 -9.237064 -0.773512 255 255 0 
19.501537 -9.041619 -0.773511 255 255 0 
19.591381 -8.845264 -0.773511 255 255 0 
19.679247 -8.648016 -0.773511 255 255 0 
19.765121 -8.449904 -0.773511 255 255 0 
19.849012 -8.250933 -0.773511 255 255 0 
19.930889 -8.051123 -0.773511 255 255 0 
20.010756 -7.850506 -0.773511 255 255 0 
20.088614 -7.649095 -0.773511 255 255 0 
20.164438 -7.446911 -0.773511 255 255 0 
20.238220 -7.243984 -0.773512 255 255 0 
20.309965 -7.040318 -0.773511 255 255 0 
20.379665 -6.835943 -0.773511 255 255 0 
20.447308 -6.630876 -0.773511 255 255 0 
20.512886 -6.425141 -0.773511 255 255 0 
20.576391 -6.218757 -0.773511 255 255 0 
20.637821 -6.011756 -0.773511 255 255 0 
20.697168 -5.804137 -0.773511 255 255 0 
20.754433 -5.595935 -0.773511 255 255 0 
20.809599 -5.387169 -0.773511 255 255 0 
20.862665 -5.177855 -0.773511 255 255 0 
20.913622 -4.968032 -0.773512 255 255 0 
20.962471 -4.757696 -0.773511 255 255 0 
21.009207 -4.546878 -0.773511 255 255 0 
21.053823 -4.335605 -0.773511 255 255 0 
21.096317 -4.123893 -0.773511 255 255 0 
12.491552 -2.311811 2.426489 255 255 0 
12.514145 -2.186219 2.426489 255 255 0 
12.535477 -2.060400 2.426489 255 255 0 
12.555539 -1.934372 2.426489 255 255 0 
12.574338 -1.808149 2.426489 255 255 0 
12.591867 -1.681744 2.426489 255 255 0 
12.608125 -1.555176 2.426489 255 255 0 
12.623109 -1.428445 2.426489 255 255 0 
12.636826 -1.301569 2.426489 255 255 0 
12.649258 -1.174567 2.426489 255 255 0 
12.660419 -1.047442 2.426489 255 255 0 
12.670300 -0.920217 2.426489 255 255 0 
12.678906 -0.792892 2.426489 255 255 0 
12.686233 -0.665488 2.426489 255 255 0 
12.692279 -0.538017 2.426489 255 255 0 
12.697041 -0.410491 2.426489 255 255 0 
12.700527 -0.282925 2.426489 255 255 0 
12.702725 -0.155335 2.426489 255 255 0 
12.703645 -0.027723 2.426489 255 255 0 
12.703284 0.099891 2.426489 255 255 0 
12.701636 0.227495 2.426489 255 255 0 
12.698712 0.355074 2.426489 255 255 0 
12.694507 0.482618 2.426489 255 255 0 
12.689018 0.610114 2.426489 255 255 0 
12.682246 0.737547 2.426489 255 255 0 
12.674198 0.864907 2.426489 255 255 0 
12.664868 0.992179 2.426489 255 255 0 
12.654268 1.119351 2.426489 255 255 0 
12.642383 1.246410 2.426489 255 255 0 
12.629226 1.373344 2.426489 255 255 0 
12.614794 1.500139 2.426489 255 255 0 
12.599088 1.626782 2.426489 255 255 0 
12.582111 1.753254 2.426489 255 255 0 
12.563863 1.879557 2.426489 255 255 0 
12.544348 2.005669 2.426489 255 255 0 
12.523572 2.131579 2.426489 255 255 0 
12.501523 2.257274 2.426489 255 255 0 
12.478216 2.382742 2.426489 255 255 0 
12.453654 2.507969 2.426489 255 255 0 
12.427831 2.632942 2.426489 255 255 0 
12.400757 2.757650 2.426489 255 255 0 
12.372429 2.882081 2.426489 255 255 0 
12.342854 3.006220 2.426489 255 255 0 
12.312034 3.130055 2.426489 255 255 0 
12.279969 3.253575 2.426489 255 255 0 
12.246666 3.376767 2.426489 255 255 0 
12.212129 3.499617 2.426489 255 255 0 
12.176357 3.622115 2.426489 255 255 0 
12.139356 3.744247 2.426489 255 255 0 
12.101132 3.866002 2.426489 255 255 0 
12.099993 4.000026 2.411806 255 255 0 
12.099993 4.135330 2.396115 255 255 0 
12.099993 4.271542 2.379845 255 255 0 
12.099993 4.408721 2.362986 255 255 0 
12.099993 4.546932 2.345529 255 255 0 
12.099993 4.686166 2.327465 255 255 0 
12.099993 4.826501 2.308779 255 255 0 
12.099993 4.967957 2.289462 255 255 0 
12.099993 5.110590 2.269504 255 255 0 
12.099993 5.254431 2.248892 255 255 0 
12.099991 5.399556 2.227611 255 255 0 
12.099993 5.545967 2.205649 255 255 0 
12.099991 5.693750 2.182994 255 255 0 
12.099991 5.842913 2.159631 255 255 0 
12.099991 5.993534 2.135541 255 255 0 
12.099990 6.145682 2.110715 255 255 0 
12.099990 6.299364 2.085132 255 255 0 
12.099990 6.454676 2.058776 255 255 0 
12.099990 6.611659 2.031632 255 255 0 
12.099990 6.770378 2.003677 255 255 0 
12.099990 6.930892 1.974892 255 255 0 
7.997674 -4.520934 2.569432 255 255 0 
8.054958 -4.447141 2.562594 255 255 0 
8.112043 -4.372912 2.555492 255 255 0 
8.168929 -4.298236 2.548123 255 255 0 
8.225622 -4.223110 2.540488 255 255 0 
8.282122 -4.147525 2.532583 255 255 0 
8.338428 -4.071479 2.524407 255 255 0 
8.394553 -3.994955 2.515957 255 255 0 
8.450491 -3.917953 2.507231 255 255 0 
8.506244 -3.840462 2.498228 255 255 0 
8.561819 -3.762478 2.488945 255 255 0 
8.617211 -3.683995 2.479381 255 255 0 
8.674344 -3.605792 2.468523 255 255 0 
8.736829 -3.529260 2.454475 255 255 0 
8.799464 -3.452153 2.440004 255 255 0 
8.862254 -3.374458 2.425100 255 255 0 
8.925212 -3.296160 2.409760 255 255 0 
8.988340 -3.217248 2.393975 255 255 0 
9.082974 -3.148553 2.361573 255 255 0 
15.208318 -5.101320 -0.773511 255 255 0 
15.258794 -4.948288 -0.773511 255 255 0 
15.307734 -4.794760 -0.773511 255 255 0 
15.355126 -4.640747 -0.773511 255 255 0 
15.400964 -4.486271 -0.773511 255 255 0 
15.445253 -4.331336 -0.773511 255 255 0 
15.487988 -4.175965 -0.773511 255 255 0 
15.529155 -4.020173 -0.773511 255 255 0 
15.568753 -3.863973 -0.773511 255 255 0 
15.606781 -3.707392 -0.773511 255 255 0 
15.643236 -3.550430 -0.773511 255 255 0 
15.678114 -3.393108 -0.773511 255 255 0 
11.200000 -2.306415 1.473019 255 255 0 
11.200000 -2.189375 1.484253 255 255 0 
11.200000 -2.072791 1.494881 255 255 0 
11.200000 -1.956638 1.504911 255 255 0 
11.200000 -1.840897 1.514346 255 255 0 
11.200000 -1.725530 1.523193 255 255 0 
11.199999 -1.610531 1.531457 255 255 0 
11.200000 -1.495861 1.539139 255 255 0 
11.200000 -1.381495 1.546246 255 255 0 
11.199997 -1.267402 1.552780 255 255 0 
11.199999 -1.153582 1.558746 255 255 0 
11.199999 -1.039991 1.564145 255 255 0 
11.199999 -0.926627 1.568980 255 255 0 
11.199997 -0.813441 1.573256 255 255 0 
11.199997 -0.700407 1.576974 255 255 0 
11.199997 -0.587535 1.580134 255 255 0 
11.199997 -0.474766 1.582739 255 255 0 
11.199997 -0.362090 1.584790 255 255 0 
11.199997 -0.249526 1.586291 255 255 0 
11.199997 -0.136962 1.587236 255 255 0 
11.199997 -0.024443 1.587631 255 255 0 
11.199997 0.088067 1.587476 255 255 0 
11.199997 0.200579 1.586769 255 255 0 
11.199997 0.313150 1.585510 255 255 0 
11.199996 0.425791 1.583700 255 255 0 
11.199997 0.538522 1.581334 255 255 0 
11.199997 0.651337 1.578416 255 255 0 
11.199997 0.764299 1.574941 255 255 0 
11.199996 0.877406 1.570908 255 255 0 
11.199997 0.990698 1.566315 255 255 0 
11.199996 1.104193 1.561162 255 255 0 
11.199996 1.217926 1.555443 255 255 0 
11.199995 1.331884 1.549156 255 255 0 
11.199996 1.446145 1.542299 255 255 0 
11.199995 1.560662 1.534867 255 255 0 
11.199995 1.675505 1.526857 255 255 0 
11.199995 1.790717 1.518265 255 255 0 
11.199995 1.906301 1.509086 255 255 0 
11.199995 2.022274 1.499315 255 255 0 
11.199995 2.138659 1.488947 255 255 0 
11.199995 2.255503 1.477978 255 255 0 
11.199995 2.372796 1.466400 255 255 0 
11.199995 2.490618 1.454207 255 255 0 
11.199994 2.608950 1.441396 255 255 0 
11.199995 2.727873 1.427956 255 255 0 
11.199995 2.847345 1.413881 255 255 0 
11.199994 2.967446 1.399165 255 255 0 
11.199995 3.088168 1.383798 255 255 0 
11.199994 3.209569 1.367771 255 255 0 
11.199994 3.331676 1.351080 255 255 0 
11.199994 3.454512 1.333708 255 255 0 
11.199994 3.578110 1.315650 255 255 0 
11.199994 3.702507 1.296896 255 255 0 
11.199994 3.827731 1.277436 255 255 0 
11.199994 3.953816 1.257255 255 255 0 
11.199992 4.080802 1.236345 255 255 0 
11.177352 4.200194 1.226489 255 255 0 
11.134600 4.312258 1.226489 255 255 0 
11.090715 4.423907 1.226489 255 255 0 
11.045716 4.535099 1.226489 255 255 0 
10.999603 4.645799 1.226489 255 255 0 
10.952383 4.756072 1.226489 255 255 0 
10.904053 4.865869 1.226489 255 255 0 
10.854625 4.975156 1.226489 255 255 0 
10.804098 5.083941 1.226489 255 255 0 
10.752484 5.192215 1.226489 255 255 0 
10.699783 5.299963 1.226489 255 255 0 
10.646005 5.407179 1.226489 255 255 0 
10.591151 5.513847 1.226489 255 255 0 
10.535228 5.619962 1.226489 255 255 0 
10.478242 5.725508 1.226489 255 255 0 
10.420200 5.830476 1.226489 255 255 0 
10.361105 5.934855 1.226489 255 255 0 
7.385586 -4.174932 1.748905 255 255 0 
7.441644 -4.108531 1.738562 255 255 0 
7.497686 -4.041735 1.727809 255 255 0 
7.553722 -3.974534 1.716644 255 255 0 
7.609756 -3.906919 1.705062 255 255 0 
7.665793 -3.838879 1.693060 255 255 0 
7.721837 -3.770409 1.680634 255 255 0 
7.777900 -3.701492 1.667778 255 255 0 
7.833984 -3.632118 1.654489 255 255 0 
7.890096 -3.562279 1.640763 255 255 0 
7.946242 -3.491963 1.626592 255 255 0 
8.002425 -3.421164 1.611977 255 255 0 
8.058659 -3.349861 1.596906 255 255 0 
8.114944 -3.278047 1.581378 255 255 0 
8.171286 -3.205712 1.565385 255 255 0 
8.258828 -3.144694 1.528110 255 255 0 
8.356271 -3.086046 1.483966 255 255 0 
8.455066 -3.026371 1.438690 255 255 0 
8.555267 -2.965627 1.392246 255 255 0 
8.656919 -2.903786 1.344599 255 255 0 
8.760071 -2.840811 1.295713 255 255 0 
8.864772 -2.776664 1.245551 255 255 0 
8.971077 -2.711307 1.194073 255 255 0 
9.079036 -2.644705 1.141238 255 255 0 
9.770052 -2.739830 0.709733 255 255 0 
12.088916 -3.259488 -0.773511 255 255 0 
12.121053 -3.137886 -0.773511 255 255 0 
12.151961 -3.015968 -0.773511 255 255 0 
10.001837 -2.375936 0.626489 255 255 0 
10.025198 -2.275344 0.626489 255 255 0 
10.047550 -2.174522 0.626489 255 255 0 
10.068885 -2.073481 0.626489 255 255 0 
10.089209 -1.972231 0.626489 255 255 0 
10.108510 -1.870782 0.626489 255 255 0 
10.126793 -1.769149 0.626489 255 255 0 
10.144054 -1.667332 0.626489 255 255 0 
10.160290 -1.565347 0.626489 255 255 0 
10.175500 -1.463205 0.626489 255 255 0 
10.189688 -1.360914 0.626489 255 255 0 
10.202845 -1.258492 0.626489 255 255 0 
10.214968 -1.155937 0.626489 255 255 0 
10.226068 -1.053265 0.626489 255 255 0 
10.236132 -0.950484 0.626489 255 255 0 
10.245162 -0.847611 0.626489 255 255 0 
10.253160 -0.744661 0.626489 255 255 0 
10.260119 -0.641633 0.626489 255 255 0 
10.266048 -0.538550 0.626489 255 255 0 
10.270944 -0.435417 0.626489 255 255 0 
10.274797 -0.332203 0.626489 255 255 0 
10.277614 -0.228939 0.626489 255 255 0 
10.279398 -0.125699 0.626489 255 255 0 
10.280139 -0.022460 0.626489 255 255 0 
10.279850 0.080832 0.626489 255 255 0 
10.278518 0.184070 0.626489 255 255 0 
10.276146 0.287309 0.626489 255 255 0 
10.272744 0.390548 0.626489 255 255 0 
10.268302 0.493709 0.626489 255 255 0 
10.262826 0.596817 0.626489 255 255 0 
10.256312 0.699899 0.626489 255 255 0 
10.248764 0.802875 0.626489 255 255 0 
10.240180 0.905800 0.626489 255 255 0 
10.230566 1.008620 0.626489 255 255 0 
10.219916 1.111335 0.626489 255 255 0 
10.208236 1.213917 0.626489 255 255 0 
10.195530 1.316424 0.626489 255 255 0 
10.181791 1.418772 0.626489 255 255 0 
10.167026 1.520988 0.626489 255 255 0 
10.151232 1.623021 0.626489 255 255 0 
10.134417 1.724923 0.626489 255 255 0 
10.116578 1.826641 0.626489 255 255 0 
10.097719 1.928180 0.626489 255 255 0 
10.077841 2.029517 0.626489 255 255 0 
10.056945 2.130650 0.626489 255 255 0 
10.035034 2.231567 0.626489 255 255 0 
10.012113 2.332259 0.626489 255 255 0 
9.988176 2.432716 0.626489 255 255 0 
9.963236 2.532927 0.626489 255 255 0 
9.937288 2.632882 0.626489 255 255 0 
9.910339 2.732573 0.626489 255 255 0 
9.882394 2.831986 0.626489 255 255 0 
9.853443 2.931116 0.626489 255 255 0 
9.823505 3.029948 0.626489 255 255 0 
9.792572 3.128474 0.626489 255 255 0 
9.760651 3.226685 0.626489 255 255 0 
9.727748 3.324571 0.626489 255 255 0 
9.693858 3.422122 0.626489 255 255 0 
9.658991 3.519325 0.626489 255 255 0 
9.623153 3.616175 0.626489 255 255 0 
9.586343 3.712661 0.626489 255 255 0 
9.548564 3.808771 0.626489 255 255 0 
9.509819 3.904496 0.626489 255 255 0 
9.470119 3.999828 0.626489 255 255 0 
9.429461 4.094756 0.626489 255 255 0 
9.399993 4.194697 0.618183 255 255 0 
9.399993 4.308401 0.588892 255 255 0 
9.399993 4.423221 0.558676 255 255 0 
9.399992 4.539093 0.527516 255 255 0 
9.399992 4.656126 0.495389 255 255 0 
9.399992 4.774326 0.462275 255 255 0 
9.399993 4.893729 0.428156 255 255 0 
9.399992 5.014375 0.393005 255 255 0 
9.399992 5.136331 0.356800 255 255 0 
9.399992 5.259622 0.319516 255 255 0 
9.399992 5.384330 0.281127 255 255 0 
7.006163 -3.960451 0.762403 255 255 0 
7.039214 -3.886350 0.768095 255 255 0 
7.072046 -3.812286 0.773293 255 255 0 
7.104659 -3.738251 0.777993 255 255 0 
7.137062 -3.664235 0.782202 255 255 0 
7.169257 -3.590223 0.785918 255 255 0 
7.201247 -3.516218 0.789143 255 255 0 
7.233042 -3.442195 0.791881 255 255 0 
7.264643 -3.368151 0.794130 255 255 0 
7.303579 -3.297475 0.789442 255 255 0 
7.354120 -3.231756 0.774264 255 255 0 
7.416513 -3.170675 0.748520 255 255 0 
7.500195 -3.117716 0.704348 255 255 0 
7.589851 -3.065985 0.654819 255 255 0 
7.759358 -3.044103 0.538142 255 255 0 
7.935728 -3.021672 0.415925 255 255 0 
8.119517 -2.998614 0.287801 255 255 0 
8.311231 -2.974886 0.153372 255 255 0 
8.511451 -2.950438 0.012174 255 255 0 
8.720797 -2.925212 -0.136270 255 255 0 
8.939960 -2.899147 -0.292507 255 255 0 
9.556148 -2.993220 -0.773511 255 255 0 
9.585732 -2.897074 -0.773511 255 255 0 
9.614347 -2.800640 -0.773511 255 255 0 
9.641998 -2.703920 -0.773511 255 255 0 
8.680026 -2.340360 0.026489 255 255 0 
8.703095 -2.253048 0.026489 255 255 0 
8.725291 -2.165509 0.026489 255 255 0 
8.746601 -2.077754 0.026489 255 255 0 
8.767033 -1.989788 0.026489 255 255 0 
8.786579 -1.901619 0.026489 255 255 0 
8.805239 -1.813259 0.026489 255 255 0 
8.823011 -1.724716 0.026489 255 255 0 
8.839890 -1.635998 0.026489 255 255 0 
8.855875 -1.547119 0.026489 255 255 0 
8.870972 -1.458082 0.026489 255 255 0 
8.885171 -1.368896 0.026489 255 255 0 
8.898472 -1.279572 0.026489 255 255 0 
8.910877 -1.190119 0.026489 255 255 0 
8.922384 -1.100551 0.026489 255 255 0 
8.932990 -1.010867 0.026489 255 255 0 
8.942693 -0.921081 0.026489 255 255 0 
8.951492 -0.831205 0.026489 255 255 0 
8.959390 -0.741242 0.026489 255 255 0 
8.966384 -0.651209 0.026489 255 255 0 
8.972475 -0.561106 0.026489 255 255 0 
8.977656 -0.470945 0.026489 255 255 0 
8.981937 -0.380739 0.026489 255 255 0 
8.985308 -0.290492 0.026489 255 255 0 
8.987771 -0.200217 0.026489 255 255 0 
8.989331 -0.109926 0.026489 255 255 0 
8.989981 -0.019619 0.026489 255 255 0 
8.989722 0.070690 0.026489 255 255 0 
8.988561 0.160990 0.026489 255 255 0 
8.986489 0.251275 0.026489 255 255 0 
8.983514 0.341534 0.026489 255 255 0 
8.979625 0.431759 0.026489 255 255 0 
8.974838 0.521940 0.026489 255 255 0 
8.969140 0.612067 0.026489 255 255 0 
8.962539 0.702134 0.026489 255 255 0 
8.955035 0.792130 0.026489 255 255 0 
8.946627 0.882046 0.026489 255 255 0 
8.937316 0.971873 0.026489 255 255 0 
8.927099 1.061602 0.026489 255 255 0 
8.915986 1.151223 0.026489 255 255 0 
8.903973 1.240724 0.026489 255 255 0 
8.891061 1.330104 0.026489 255 255 0 
8.877252 1.419350 0.026489 255 255 0 
8.862544 1.508453 0.026489 255 255 0 
8.846945 1.597403 0.026489 255 255 0 
8.830450 1.686193 0.026489 255 255 0 
8.813066 1.774812 0.026489 255 255 0 
8.794794 1.863252 0.026489 255 255 0 
8.775634 1.951504 0.026489 255 255 0 
8.755586 2.039559 0.026489 255 255 0 
8.734660 2.127409 0.026489 255 255 0 
8.712847 2.215044 0.026489 255 255 0 
8.690159 2.302455 0.026489 255 255 0 
8.666590 2.389634 0.026489 255 255 0 
8.642146 2.476572 0.026489 255 255 0 
8.616834 2.563259 0.026489 255 255 0 
8.590650 2.649688 0.026489 255 255 0 
8.563601 2.735851 0.026489 255 255 0 
8.535687 2.821735 0.026489 255 255 0 
8.506911 2.907337 0.026489 255 255 0 
8.499994 3.000657 0.007667 255 255 0 
8.499993 3.097034 -0.017754 255 255 0 
8.499993 3.194104 -0.044079 255 255 0 
8.499993 3.291897 -0.071322 255 255 0 
8.499993 3.390500 -0.099497 255 255 0 
8.499993 3.489886 -0.128624 255 255 0 
8.499993 3.590042 -0.158720 255 255 0 
8.499993 3.691131 -0.189802 255 255 0 
8.499993 3.793055 -0.221893 255 255 0 
8.499993 3.895912 -0.255005 255 255 0 
8.499993 3.999744 -0.289170 255 255 0 
8.499993 4.104505 -0.324402 255 255 0 
8.499992 4.210320 -0.360723 255 255 0 
8.499992 4.317204 -0.398161 255 255 0 
8.499992 4.425172 -0.436737 255 255 0 
8.499992 4.534274 -0.476480 255 255 0 
8.499992 4.644554 -0.517414 255 255 0 
8.499992 4.756049 -0.559566 255 255 0 
8.467275 4.850071 -0.573511 255 255 0 
7.052881 -3.986861 -0.773511 255 255 0 
7.092575 -3.915811 -0.773511 255 255 0 
7.131551 -3.844366 -0.773511 255 255 0 
7.169811 -3.772533 -0.773511 255 255 0 
7.207345 -3.700320 -0.773511 255 255 0 
7.244153 -3.627731 -0.773511 255 255 0 
7.280229 -3.554783 -0.773511 255 255 0 
7.315570 -3.481471 -0.773511 255 255 0 
7.350173 -3.407807 -0.773511 255 255 0 
7.384034 -3.333799 -0.773511 255 255 0 
7.417151 -3.259456 -0.773511 255 255 0 
7.449519 -3.184788 -0.773511 255 255 0 
7.481134 -3.109795 -0.773511 255 255 0 
7.511996 -3.034487 -0.773511 255 255 0 
7.542099 -2.958874 -0.773511 255 255 0 
7.571443 -2.882961 -0.773511 255 255 0 
7.600020 -2.806757 -0.773511 255 255 0 
7.627830 -2.730274 -0.773511 255 255 0 
7.654872 -2.653512 -0.773511 255 255 0 
7.681142 -2.576483 -0.773511 255 255 0 
7.706635 -2.499192 -0.773511 255 255 0 
7.600000 -2.380524 -0.640590 255 255 0 
7.600000 -2.296932 -0.616851 255 255 0 
7.600000 -2.213881 -0.594031 255 255 0 
7.601396 -2.131670 -0.573511 255 255 0 
7.622426 -2.055204 -0.573511 255 255 0 
7.642687 -1.978531 -0.573511 255 255 0 
7.662175 -1.901657 -0.573511 255 255 0 
7.680892 -1.824595 -0.573511 255 255 0 
7.698832 -1.747346 -0.573511 255 255 0 
7.715995 -1.669920 -0.573511 255 255 0 
7.732383 -1.592326 -0.573511 255 255 0 
7.747987 -1.514571 -0.573511 255 255 0 
7.762812 -1.436664 -0.573511 255 255 0 
7.776852 -1.358614 -0.573511 255 255 0 
7.790105 -1.280425 -0.573511 255 255 0 
7.802576 -1.202106 -0.573511 255 255 0 
7.814259 -1.123665 -0.573511 255 255 0 
7.825151 -1.045111 -0.573511 255 255 0 
7.835252 -0.966456 -0.573511 255 255 0 
7.844566 -0.887699 -0.573511 255 255 0 
7.853087 -0.808853 -0.573511 255 255 0 
7.860816 -0.729929 -0.573511 255 255 0 
7.867754 -0.650927 -0.573511 255 255 0 
7.873894 -0.571863 -0.573511 255 255 0 
7.879242 -0.492739 -0.573511 255 255 0 
7.883794 -0.413564 -0.573511 255 255 0 
7.887549 -0.334348 -0.573511 255 255 0 
7.890511 -0.255098 -0.573511 255 255 0 
7.892675 -0.175822 -0.573511 255 255 0 
7.894044 -0.096532 -0.573511 255 255 0 
7.894614 -0.017229 -0.573511 255 255 0 
7.894390 0.062077 -0.573511 255 255 0 
7.893368 0.141375 -0.573511 255 255 0 
7.891548 0.220659 -0.573511 255 255 0 
7.888934 0.299921 -0.573511 255 255 0 
7.885525 0.379152 -0.573511 255 255 0 
7.881317 0.458345 -0.573511 255 255 0 
7.876315 0.537492 -0.573511 255 255 0 
7.870519 0.616584 -0.573511 255 255 0 
7.863927 0.695615 -0.573511 255 255 0 
7.856544 0.774575 -0.573511 255 255 0 
7.848365 0.853457 -0.573511 255 255 0 
7.839395 0.932253 -0.573511 255 255 0 
7.829636 1.010955 -0.573511 255 255 0 
7.819088 1.089551 -0.573511 255 255 0 
7.807746 1.168041 -0.573511 255 255 0 
7.795620 1.246413 -0.573511 255 255 0 
7.782706 1.324659 -0.573511 255 255 0 
7.769007 1.402772 -0.573511 255 255 0 
7.754522 1.480743 -0.573511 255 255 0 
7.739258 1.558564 -0.573511 255 255 0 
7.723212 1.636229 -0.573511 255 255 0 
7.706385 1.713728 -0.573511 255 255 0 
7.688781 1.791054 -0.573511 255 255 0 
7.670401 1.868199 -0.573511 255 255 0 
7.651248 1.945157 -0.573511 255 255 0 
7.631322 2.021917 -0.573511 255 255 0 
7.610626 2.098474 -0.573511 255 255 0 
7.599995 2.177899 -0.584392 255 255 0 
7.599995 2.260738 -0.606822 255 255 0 
7.599995 2.344129 -0.630159 255 255 0 
7.599995 2.428015 -0.654419 255 255 0 
7.599995 2.512399 -0.679616 255 255 0 
7.599995 2.597377 -0.705762 255 255 0 
7.599995 2.682943 -0.732876 255 255 0 
7.599995 2.769101 -0.760971 255 255 0 
7.583953 2.849887 -0.773511 255 255 0 
7.554943 2.925927 -0.773511 255 255 0 
7.525169 3.001671 -0.773511 255 255 0 
7.494637 3.077112 -0.773511 255 255 0 
7.463349 3.152242 -0.773511 255 255 0 
7.431305 3.227054 -0.773511 255 255 0 
7.398515 3.301541 -0.773511 255 255 0 
7.364976 3.375695 -0.773511 255 255 0 
7.330696 3.449507 -0.773511 255 255 0 
7.295674 3.522973 -0.773511 255 255 0 
7.259916 3.596081 -0.773511 255 255 0 
7.223427 3.668828 -0.773511 255 255 0 
7.186209 3.741204 -0.773511 255 255 0 
7.148263 3.813203 -0.773511 255 255 0 
7.109598 3.884817 -0.773511 255 255 0 
7.070215 3.956039 -0.773511 255 255 0 
7.030119 4.026861 -0.773511 255 255 0 
5.715014 -3.230590 -0.773511 255 255 0 
5.747179 -3.173017 -0.773511 255 255 0 
5.778763 -3.115125 -0.773511 255 255 0 
5.809764 -3.056918 -0.773511 255 255 0 
5.840178 -2.998403 -0.773511 255 255 0 
5.870004 -2.939584 -0.773511 255 255 0 
5.899236 -2.880473 -0.773511 255 255 0 
5.927874 -2.821068 -0.773511 255 255 0 
5.955913 -2.761377 -0.773511 255 255 0 
5.983351 -2.701409 -0.773511 255 255 0 
6.010185 -2.641168 -0.773511 255 255 0 
6.036414 -2.580663 -0.773511 255 255 0 
6.062031 -2.519895 -0.773511 255 255 0 
6.087039 -2.458872 -0.773511 255 255 0 
6.111432 -2.397601 -0.773511 255 255 0 
6.135209 -2.336089 -0.773511 255 255 0 
6.158365 -2.274341 -0.773511 255 255 0 
6.180901 -2.212366 -0.773511 255 255 0 
6.202812 -2.150165 -0.773511 255 255 0 
6.224096 -2.087747 -0.773511 255 255 0 
6.244756 -2.025118 -0.773511 255 255 0 
6.264787 -1.962285 -0.773511 255 255 0 
6.284180 -1.899254 -0.773511 255 255 0 
6.302940 -1.836035 -0.773511 255 255 0 
6.321067 -1.772626 -0.773511 255 255 0 
6.338554 -1.709040 -0.773511 255 255 0 
6.355404 -1.645281 -0.773511 255 255 0 
6.371609 -1.581355 -0.773511 255 255 0 
6.387170 -1.517273 -0.773511 255 255 0 
6.402092 -1.453036 -0.773511 255 255 0 
6.416365 -1.388651 -0.773511 255 255 0 
6.429990 -1.324126 -0.773511 255 255 0 
6.442968 -1.259467 -0.773511 255 255 0 
6.455295 -1.194682 -0.773511 255 255 0 
6.466970 -1.129779 -0.773511 255 255 0 
6.477992 -1.064759 -0.773511 255 255 0 
6.488361 -0.999632 -0.773511 255 255 0 
6.498076 -0.934403 -0.773511 255 255 0 
6.507133 -0.869080 -0.773511 255 255 0 
6.515536 -0.803673 -0.773511 255 255 0 
6.523279 -0.738182 -0.773511 255 255 0 
6.530365 -0.672616 -0.773511 255 255 0 
6.536792 -0.606985 -0.773511 255 255 0 
6.542560 -0.541290 -0.773511 255 255 0 
6.547666 -0.475543 -0.773511 255 255 0 
6.552113 -0.409746 -0.773511 255 255 0 
6.555900 -0.343907 -0.773511 255 255 0 
6.559023 -0.278033 -0.773511 255 255 0 
6.561485 -0.212131 -0.773511 255 255 0 
6.563285 -0.146208 -0.773511 255 255 0 
6.564424 -0.080273 -0.773511 255 255 0 
6.564898 -0.014327 -0.773511 255 255 0 
6.564710 0.051620 -0.773511 255 255 0 
6.563863 0.117562 -0.773511 255 255 0 
6.562349 0.183492 -0.773511 255 255 0 
6.560173 0.249403 -0.773511 255 255 0 
6.557338 0.315289 -0.773511 255 255 0 
6.553840 0.381144 -0.773511 255 255 0 
6.549681 0.446960 -0.773511 255 255 0 
6.544860 0.512731 -0.773511 255 255 0 
6.539380 0.578450 -0.773511 255 255 0 
6.533239 0.644110 -0.773511 255 255 0 
6.526440 0.709706 -0.773511 255 255 0 
6.518981 0.775230 -0.773511 255 255 0 
6.510865 0.840676 -0.773511 255 255 0 
6.502091 0.906033 -0.773511 255 255 0 
6.492662 0.971303 -0.773511 255 255 0 
6.482579 1.036475 -0.773511 255 255 0 
6.471838 1.101541 -0.773511 255 255 0 
6.460447 1.166497 -0.773511 255 255 0 
6.448403 1.231336 -0.773511 255 255 0 
6.435709 1.296050 -0.773511 255 255 0 
6.422362 1.360632 -0.773511 255 255 0 
6.408374 1.425078 -0.773511 255 255 0 
6.393734 1.489380 -0.773511 255 255 0 
6.378449 1.553532 -0.773511 255 255 0 
6.362521 1.617527 -0.773511 255 255 0 
6.345953 1.681359 -0.773511 255 255 0 
6.328742 1.745020 -0.773511 255 255 0 
6.310894 1.808506 -0.773511 255 255 0 
6.292409 1.871810 -0.773511 255 255 0 
6.273289 1.934924 -0.773511 255 255 0 
6.253537 1.997844 -0.773511 255 255 0 
6.233150 2.060561 -0.773511 255 255 0 
6.212139 2.123071 -0.773511 255 255 0 
6.190497 2.185367 -0.773511 255 255 0 
6.168231 2.247441 -0.773511 255 255 0 
6.145345 2.309290 -0.773511 255 255 0 
6.121838 2.370906 -0.773511 255 255 0 
6.097712 2.432281 -0.773511 255 255 0 
6.072972 2.493412 -0.773511 255 255 0 
6.047619 2.554291 -0.773511 255 255 0 
6.021655 2.614912 -0.773511 255 255 0 
5.995081 2.675269 -0.773511 255 255 0 
5.967908 2.735356 -0.773511 255 255 0 
5.940130 2.795167 -0.773511 255 255 0 
5.911751 2.854696 -0.773511 255 255 0 
5.882777 2.913938 -0.773511 255 255 0 
5.853209 2.972885 -0.773511 255 255 0 
5.823049 3.031532 -0.773511 255 255 0 
5.792304 3.089874 -0.773511 255 255 0 
5.760973 3.147903 -0.773511 255 255 0 
5.729061 3.205614 -0.773511 255 255 0 
5.696570 3.263003 -0.773511 255 255 0 
4.594000 -2.596902 -0.773511 255 255 0 
4.619856 -2.550623 -0.773511 255 255 0 
4.645245 -2.504086 -0.773511 255 255 0 
4.670166 -2.457297 -0.773511 255 255 0 
4.694613 -2.410259 -0.773511 255 255 0 
4.718589 -2.362979 -0.773511 255 255 0 
4.742087 -2.315462 -0.773511 255 255 0 
4.765107 -2.267708 -0.773511 255 255 0 
4.787648 -2.219728 -0.773511 255 255 0 
4.809703 -2.171522 -0.773511 255 255 0 
4.831275 -2.123097 -0.773511 255 255 0 
4.852356 -2.074461 -0.773511 255 255 0 
4.872949 -2.025612 -0.773511 255 255 0 
4.893053 -1.976559 -0.773511 255 255 0 
4.912662 -1.927307 -0.773511 255 255 0 
4.931772 -1.877861 -0.773511 255 255 0 
4.950387 -1.828224 -0.773511 255 255 0 
4.968502 -1.778406 -0.773511 255 255 0 
4.986118 -1.728406 -0.773511 255 255 0 
5.003226 -1.678231 -0.773511 255 255 0 
5.019835 -1.627887 -0.773511 255 255 0 
5.035933 -1.577379 -0.773511 255 255 0 
5.051525 -1.526712 -0.773511 255 255 0 
5.066603 -1.475893 -0.773511 255 255 0 
5.081176 -1.424922 -0.773511 255 255 0 
5.095231 -1.373808 -0.773511 255 255 0 
5.108776 -1.322555 -0.773511 255 255 0 
5.121803 -1.271169 -0.773511 255 255 0 
5.134315 -1.219657 -0.773511 255 255 0 
5.146308 -1.168019 -0.773511 255 255 0 
5.157783 -1.116264 -0.773511 255 255 0 
5.168732 -1.064396 -0.773511 255 255 0 
5.179164 -1.012420 -0.773511 255 255 0 
5.189075 -0.960343 -0.773511 255 255 0 
5.198459 -0.908170 -0.773511 255 255 0 
5.207320 -0.855905 -0.773511 255 255 0 
5.215654 -0.803552 -0.773511 255 255 0 
5.223463 -0.751118 -0.773511 255 255 0 
5.230746 -0.698609 -0.773511 255 255 0 
5.237497 -0.646031 -0.773511 255 255 0 
5.243724 -0.593386 -0.773511 255 255 0 
5.249421 -0.540681 -0.773511 255 255 0 
5.254585 -0.487924 -0.773511 255 255 0 
5.259222 -0.435115 -0.773511 255 255 0 
5.263328 -0.382265 -0.773511 255 255 0 
5.266902 -0.329373 -0.773511 255 255 0 
5.269946 -0.276449 -0.773511 255 255 0 
5.272457 -0.223497 -0.773511 255 255 0 
5.274434 -0.170522 -0.773511 255 255 0 
5.275882 -0.117529 -0.773511 255 255 0 
5.276797 -0.064528 -0.773511 255 255 0 
5.277179 -0.011517 -0.773511 255 255 0 
5.277028 0.041495 -0.773511 255 255 0 
5.276345 0.094502 -0.773511 255 255 0 
5.275130 0.147500 -0.773511 255 255 0 
5.273382 0.200482 -0.773511 255 255 0 
5.271100 0.253445 -0.773511 255 255 0 
5.268291 0.306382 -0.773511 255 255 0 
5.264946 0.359288 -0.773511 255 255 0 
5.261072 0.412157 -0.773511 255 255 0 
5.256666 0.464985 -0.773511 255 255 0 
5.251730 0.517767 -0.773511 255 255 0 
5.246264 0.570496 -0.773511 255 255 0 
5.240267 0.623167 -0.773511 255 255 0 
5.233744 0.675776 -0.773511 255 255 0 
5.226692 0.728313 -0.773511 255 255 0 
5.219111 0.780780 -0.773511 255 255 0 
5.211003 0.833168 -0.773511 255 255 0 
5.202372 0.885472 -0.773511 255 255 0 
5.193215 0.937686 -0.773511 255 255 0 
5.183535 0.989806 -0.773511 255 255 0 
5.173329 1.041827 -0.773511 255 255 0 
5.162604 1.093742 -0.773511 255 255 0 
5.151356 1.145546 -0.773511 255 255 0 
5.139588 1.197235 -0.773511 255 255 0 
5.127304 1.248803 -0.773511 255 255 0 
5.114501 1.300245 -0.773511 255 255 0 
5.101180 1.351557 -0.773511 255 255 0 
5.087346 1.402731 -0.773511 255 255 0 
5.072999 1.453764 -0.773511 255 255 0 
5.058138 1.504650 -0.773511 255 255 0 
5.042769 1.555385 -0.773511 255 255 0 
5.026891 1.605962 -0.773511 255 255 0 
5.010505 1.656378 -0.773511 255 255 0 
4.993613 1.706626 -0.773511 255 255 0 
4.976217 1.756702 -0.773511 255 255 0 
4.958319 1.806601 -0.773511 255 255 0 
4.939921 1.856318 -0.773511 255 255 0 
4.921026 1.905847 -0.773511 255 255 0 
4.901631 1.955184 -0.773511 255 255 0 
4.881743 2.004323 -0.773511 255 255 0 
4.861365 2.053261 -0.773511 255 255 0 
4.840494 2.101991 -0.773511 255 255 0 
4.819133 2.150509 -0.773511 255 255 0 
4.797288 2.198810 -0.773511 255 255 0 
4.774959 2.246890 -0.773511 255 255 0 
4.752148 2.294742 -0.773511 255 255 0 
4.728858 2.342362 -0.773511 255 255 0 
4.705087 2.389746 -0.773511 255 255 0 
4.680845 2.436890 -0.773511 255 255 0 
4.656128 2.483787 -0.773511 255 255 0 
4.630945 2.530435 -0.773511 255 255 0 
4.605292 2.576826 -0.773511 255 255 0 
4.579174 2.622957 -0.773511 255 255 0 
3.621413 -2.047117 -0.773511 255 255 0 
3.641794 -2.010635 -0.773511 255 255 0 
3.661808 -1.973951 -0.773511 255 255 0 
3.681451 -1.937066 -0.773511 255 255 0 
3.700724 -1.899987 -0.773511 255 255 0 
3.719623 -1.862716 -0.773511 255 255 0 
3.738146 -1.825259 -0.773511 255 255 0 
3.756292 -1.787616 -0.773511 255 255 0 
3.774062 -1.749793 -0.773511 255 255 0 
3.791450 -1.711793 -0.773511 255 255 0 
3.808452 -1.673620 -0.773511 255 255 0 
3.825071 -1.635280 -0.773511 255 255 0 
3.841307 -1.596774 -0.773511 255 255 0 
3.857152 -1.558105 -0.773511 255 255 0 
3.872610 -1.519280 -0.773511 255 255 0 
3.887675 -1.480301 -0.773511 255 255 0 
3.902349 -1.441174 -0.773511 255 255 0 
3.916630 -1.401903 -0.773511 255 255 0 
3.930514 -1.362488 -0.773511 255 255 0 
3.944002 -1.322936 -0.773511 255 255 0 
3.957093 -1.283249 -0.773511 255 255 0 
3.969785 -1.243435 -0.773511 255 255 0 
3.982074 -1.203494 -0.773511 255 255 0 
3.993962 -1.163434 -0.773511 255 255 0 
4.005448 -1.123254 -0.773511 255 255 0 
4.016530 -1.082961 -0.773511 255 255 0 
4.027206 -1.042560 -0.773511 255 255 0 
4.037476 -1.002052 -0.773511 255 255 0 
4.047337 -0.961446 -0.773511 255 255 0 
4.056791 -0.920740 -0.773511 255 255 0 
4.065835 -0.879942 -0.773511 255 255 0 
4.074469 -0.839055 -0.773511 255 255 0 
4.082694 -0.798083 -0.773511 255 255 0 
4.090503 -0.757031 -0.773511 255 255 0 
4.097902 -0.715903 -0.773511 255 255 0 
4.104887 -0.674702 -0.773511 255 255 0 
4.111455 -0.633434 -0.773511 255 255 0 
4.117613 -0.592101 -0.773511 255 255 0 
4.123352 -0.550707 -0.773511 255 255 0 
4.128674 -0.509261 -0.773511 255 255 0 
4.133582 -0.467761 -0.773511 255 255 0 
4.138073 -0.426215 -0.773511 255 255 0 
4.142145 -0.384627 -0.773511 255 255 0 
4.145801 -0.342998 -0.773511 255 255 0 
4.149036 -0.301336 -0.773511 255 255 0 
4.151854 -0.259642 -0.773511 255 255 0 
4.154253 -0.217922 -0.773511 255 255 0 
4.156233 -0.176181 -0.773511 255 255 0 
4.157792 -0.134421 -0.773511 255 255 0 
4.158932 -0.092647 -0.773511 255 255 0 
4.159653 -0.050866 -0.773511 255 255 0 
4.159956 -0.009079 -0.773511 255 255 0 
4.159837 0.032710 -0.773511 255 255 0 
4.159298 0.074495 -0.773511 255 255 0 
4.158340 0.116273 -0.773511 255 255 0 
4.156964 0.158039 -0.773511 255 255 0 
4.155164 0.199788 -0.773511 255 255 0 
4.152948 0.241518 -0.773511 255 255 0 
4.150312 0.283223 -0.773511 255 255 0 
4.147259 0.324900 -0.773511 255 255 0 
4.143784 0.366544 -0.773511 255 255 0 
4.139895 0.408151 -0.773511 255 255 0 
4.135586 0.449717 -0.773511 255 255 0 
4.130859 0.491237 -0.773511 255 255 0 
4.125717 0.532708 -0.773511 255 255 0 
4.120157 0.574123 -0.773511 255 255 0 
4.114182 0.615482 -0.773511 255 255 0 
4.107791 0.656779 -0.773511 255 255 0 
4.100986 0.698010 -0.773511 255 255 0 
4.093767 0.739170 -0.773511 255 255 0 
4.086136 0.780256 -0.773511 255 255 0 
4.078092 0.821263 -0.773511 255 255 0 
4.069637 0.862187 -0.773511 255 255 0 
4.060769 0.903024 -0.773511 255 255 0 
4.051494 0.943770 -0.773511 255 255 0 
4.041809 0.984421 -0.773511 255 255 0 
4.031717 1.024973 -0.773511 255 255 0 
4.021219 1.065421 -0.773511 255 255 0 
4.010312 1.105761 -0.773511 255 255 0 
3.999003 1.145990 -0.773511 255 255 0 
3.987288 1.186103 -0.773511 255 255 0 
3.975173 1.226097 -0.773511 255 255 0 
3.962656 1.265967 -0.773511 255 255 0 
3.949738 1.305709 -0.773511 255 255 0 
3.936424 1.345319 -0.773511 255 255 0 
3.922710 1.384794 -0.773511 255 255 0 
3.908602 1.424129 -0.773511 255 255 0 
3.894100 1.463320 -0.773511 255 255 0 
3.879202 1.502364 -0.773511 255 255 0 
3.863916 1.541255 -0.773511 255 255 0 
3.848238 1.579991 -0.773511 255 255 0 
3.832175 1.618569 -0.773511 255 255 0 
3.815720 1.656982 -0.773511 255 255 0 
3.798882 1.695229 -0.773511 255 255 0 
3.781661 1.733304 -0.773511 255 255 0 
3.764059 1.771204 -0.773511 255 255 0 
3.746079 1.808925 -0.773511 255 255 0 
3.727718 1.846465 -0.773511 255 255 0 
3.708982 1.883817 -0.773511 255 255 0 
3.689870 1.920979 -0.773511 255 255 0 
3.670389 1.957949 -0.773511 255 255 0 
3.650536 1.994720 -0.773511 255 255 0 
3.630314 2.031290 -0.773511 255 255 0 
3.609725 2.067655 -0.773511 255 255 0 
2.751775 -1.555528 -0.773510 255 255 0 
2.767262 -1.527806 -0.773511 255 255 0 
2.782470 -1.499931 -0.773511 255 255 0 
2.797399 -1.471904 -0.773511 255 255 0 
2.812042 -1.443730 -0.773511 255 255 0 
2.826400 -1.415408 -0.773510 255 255 0 
2.840478 -1.386947 -0.773510 255 255 0 
2.854268 -1.358343 -0.773511 255 255 0 
2.867767 -1.329602 -0.773510 255 255 0 
2.880980 -1.300728 -0.773511 255 255 0 
2.893900 -1.271721 -0.773510 255 255 0 
2.906529 -1.242589 -0.773511 255 255 0 
2.918864 -1.213329 -0.773511 255 255 0 
2.930904 -1.183946 -0.773510 255 255 0 
2.942651 -1.154444 -0.773511 255 255 0 
2.954098 -1.124826 -0.773511 255 255 0 
2.965250 -1.095094 -0.773511 255 255 0 
2.976099 -1.065253 -0.773511 255 255 0 
2.986651 -1.035303 -0.773511 255 255 0 
2.996901 -1.005249 -0.773511 255 255 0 
3.006847 -0.975094 -0.773511 255 255 0 
3.016491 -0.944840 -0.773511 255 255 0 
3.025829 -0.914490 -0.773511 255 255 0 
3.034861 -0.884050 -0.773510 255 255 0 
3.043589 -0.853519 -0.773510 255 255 0 
3.052011 -0.822902 -0.773511 255 255 0 
3.060123 -0.792202 -0.773511 255 255 0 
3.067927 -0.761422 -0.773511 255 255 0 
3.075419 -0.730566 -0.773510 255 255 0 
3.082604 -0.699636 -0.773511 255 255 0 
3.089476 -0.668635 -0.773511 255 255 0 
3.096037 -0.637567 -0.773511 255 255 0 
3.102286 -0.606433 -0.773511 255 255 0 
3.108221 -0.575239 -0.773510 255 255 0 
3.113842 -0.543989 -0.773511 255 255 0 
3.119148 -0.512682 -0.773510 255 255 0 
3.124142 -0.481322 -0.773510 255 255 0 
3.128820 -0.449915 -0.773511 255 255 0 
3.133182 -0.418462 -0.773511 255 255 0 
3.137227 -0.386968 -0.773510 255 255 0 
3.140956 -0.355434 -0.773511 255 255 0 
3.144368 -0.323864 -0.773511 255 255 0 
3.147463 -0.292263 -0.773511 255 255 0 
3.150239 -0.260631 -0.773510 255 255 0 
3.152698 -0.228974 -0.773510 255 255 0 
3.154838 -0.197292 -0.773510 255 255 0 
3.156662 -0.165591 -0.773511 255 255 0 
3.158165 -0.133873 -0.773510 255 255 0 
3.159350 -0.102141 -0.773510 255 255 0 
3.160218 -0.070399 -0.773510 255 255 0 
3.160766 -0.038652 -0.773510 255 255 0 
3.160995 -0.006899 -0.773510 255 255 0 
3.160904 0.024855 -0.773511 255 255 0 
3.160496 0.056606 -0.773511 255 255 0 
3.159767 0.088351 -0.773511 255 255 0 
3.158720 0.120087 -0.773511 255 255 0 
3.157355 0.151812 -0.773511 255 255 0 
3.155671 0.183521 -0.773511 255 255 0 
3.153666 0.215211 -0.773510 255 255 0 
3.151347 0.246879 -0.773511 255 255 0 
3.148707 0.278523 -0.773510 255 255 0 
3.145750 0.310139 -0.773510 255 255 0 
3.142478 0.341723 -0.773511 255 255 0 
3.138886 0.373273 -0.773511 255 255 0 
3.134978 0.404785 -0.773511 255 255 0 
3.130754 0.436254 -0.773511 255 255 0 
3.126214 0.467682 -0.773511 255 255 0 
3.121358 0.499062 -0.773510 255 255 0 
3.116186 0.530392 -0.773510 255 255 0 
3.110703 0.561668 -0.773511 255 255 0 
3.104903 0.592887 -0.773511 255 255 0 
3.098790 0.624047 -0.773510 255 255 0 
3.092365 0.655144 -0.773511 255 255 0 
3.085628 0.686174 -0.773511 255 255 0 
3.078581 0.717136 -0.773511 255 255 0 
3.071222 0.748025 -0.773511 255 255 0 
3.063552 0.778838 -0.773511 255 255 0 
3.055573 0.809573 -0.773511 255 255 0 
3.047287 0.840227 -0.773511 255 255 0 
3.038692 0.870795 -0.773511 255 255 0 
3.029792 0.901276 -0.773511 255 255 0 
3.020584 0.931665 -0.773510 255 255 0 
3.011074 0.961961 -0.773511 255 255 0 
3.001259 0.992159 -0.773511 255 255 0 
2.991141 1.022258 -0.773511 255 255 0 
2.980722 1.052253 -0.773511 255 255 0 
2.970000 1.082142 -0.773510 255 255 0 
2.958979 1.111922 -0.773510 255 255 0 
2.947663 1.141590 -0.773511 255 255 0 
2.936045 1.171142 -0.773511 255 255 0 
2.924134 1.200577 -0.773511 255 255 0 
2.911924 1.229890 -0.773510 255 255 0 
2.899424 1.259079 -0.773511 255 255 0 
2.886630 1.288141 -0.773511 255 255 0 
2.873544 1.317072 -0.773510 255 255 0 
2.860168 1.345872 -0.773511 255 255 0 
2.846505 1.374535 -0.773511 255 255 0 
2.832554 1.403059 -0.773511 255 255 0 
2.818317 1.431443 -0.773511 255 255 0 
2.803794 1.459681 -0.773510 255 255 0 
2.788990 1.487772 -0.773510 255 255 0 
2.773905 1.515713 -0.773511 255 255 0 
2.758539 1.543501 -0.773510 255 255 0 
2.742895 1.571134 -0.773510 255 255 0 
1.952989 -1.103988 -0.773511 255 255 0 
1.963982 -1.084315 -0.773511 255 255 0 
1.974774 -1.064531 -0.773510 255 255 0 
1.985369 -1.044640 -0.773511 255 255 0 
1.995763 -1.024643 -0.773511 255 255 0 
2.005955 -1.004544 -0.773511 255 255 0 
2.015941 -0.984343 -0.773510 255 255 0 
2.025729 -0.964043 -0.773510 255 255 0 
2.035310 -0.943645 -0.773511 255 255 0 
2.044688 -0.923152 -0.773511 255 255 0 
2.053859 -0.902566 -0.773511 255 255 0 
2.062822 -0.881890 -0.773510 255 255 0 
2.071575 -0.861124 -0.773510 255 255 0 
2.080120 -0.840270 -0.773510 255 255 0 
2.088456 -0.819332 -0.773510 255 255 0 
2.096584 -0.798312 -0.773511 255 255 0 
2.104497 -0.777211 -0.773511 255 255 0 
2.112197 -0.756032 -0.773510 255 255 0 
2.119685 -0.734776 -0.773511 255 255 0 
2.126959 -0.713446 -0.773511 255 255 0 
2.134021 -0.692043 -0.773511 255 255 0 
2.140863 -0.670572 -0.773510 255 255 0 
2.147491 -0.649032 -0.773510 255 255 0 
2.153901 -0.627428 -0.773511 255 255 0 
2.160096 -0.605759 -0.773511 255 255 0 
2.166073 -0.584030 -0.773511 255 255 0 
2.171829 -0.562242 -0.773511 255 255 0 
2.177368 -0.540396 -0.773511 255 255 0 
2.182688 -0.518498 -0.773510 255 255 0 
2.187783 -0.496546 -0.773510 255 255 0 
2.192663 -0.474544 -0.773511 255 255 0 
2.197319 -0.452494 -0.773510 255 255 0 
2.201755 -0.430398 -0.773511 255 255 0 
2.205966 -0.408258 -0.773510 255 255 0 
2.209957 -0.386080 -0.773510 255 255 0 
2.213723 -0.363860 -0.773511 255 255 0 
2.217266 -0.341604 -0.773511 255 255 0 
2.220586 -0.319314 -0.773511 255 255 0 
2.223682 -0.296991 -0.773511 255 255 0 
2.226552 -0.274640 -0.773511 255 255 0 
2.229198 -0.252259 -0.773510 255 255 0 
2.231620 -0.229853 -0.773511 255 255 0 
2.233816 -0.207425 -0.773511 255 255 0 
2.235787 -0.184975 -0.773511 255 255 0 
2.237532 -0.162508 -0.773511 255 255 0 
2.239050 -0.140023 -0.773510 255 255 0 
2.240344 -0.117523 -0.773511 255 255 0 
2.241414 -0.095012 -0.773511 255 255 0 
2.242253 -0.072492 -0.773511 255 255 0 
2.242870 -0.049964 -0.773511 255 255 0 
2.243256 -0.027432 -0.773510 255 255 0 
2.243420 -0.004896 -0.773510 255 255 0 
2.243356 0.017640 -0.773510 255 255 0 
2.243066 0.040174 -0.773511 255 255 0 
2.242550 0.062705 -0.773511 255 255 0 
2.241805 0.085228 -0.773510 255 255 0 
2.240836 0.107744 -0.773510 255 255 0 
2.239642 0.130248 -0.773511 255 255 0 
2.238221 0.152739 -0.773511 255 255 0 
2.236573 0.175215 -0.773510 255 255 0 
2.234700 0.197673 -0.773511 255 255 0 
2.232601 0.220112 -0.773510 255 255 0 
2.230277 0.242528 -0.773511 255 255 0 
2.227730 0.264919 -0.773510 255 255 0 
2.224955 0.287284 -0.773511 255 255 0 
2.221959 0.309619 -0.773510 255 255 0 
2.218735 0.331923 -0.773511 255 255 0 
