28.349516 -13.216529 0.773511 255 255 0 
28.480848 -12.931081 0.773510 255 255 0 
28.609310 -12.644331 0.773511 255 255 0 
28.734877 -12.356312 0.773511 255 255 0 
28.857552 -12.067039 0.773511 255 255 0 
28.977314 -11.776543 0.773511 255 255 0 
29.094151 -11.484863 0.773511 255 255 0 
29.208054 -11.192023 0.773511 255 255 0 
29.319008 -10.898054 0.773511 255 255 0 
29.426996 -10.602998 0.773511 255 255 0 
29.532021 -10.306858 0.773511 255 255 0 
29.634069 -10.009679 0.773511 255 255 0 
29.733124 -9.711485 0.773511 255 255 0 
29.829182 -9.412316 0.773511 255 255 0 
29.922226 -9.112197 0.773511 255 255 0 
30.012241 -8.811184 0.773511 255 255 0 
30.099237 -8.509256 0.773510 255 255 0 
30.183205 -8.206474 0.773511 255 255 0 
30.264116 -7.902856 0.773511 255 255 0 
30.341972 -7.598457 0.773511 255 255 0 
30.416767 -7.293277 0.773511 255 255 0 
30.488501 -6.987362 0.773511 255 255 0 
30.557152 -6.680743 0.773511 255 255 0 
30.622719 -6.373449 0.773511 255 255 0 
30.685200 -6.065511 0.773511 255 255 0 
30.744574 -5.756975 0.773511 255 255 0 
30.800856 -5.447845 0.773511 255 255 0 
13.900000 -2.314790 -3.511817 255 255 0 
13.900000 -2.171523 -3.517508 255 255 0 
13.900000 -2.028705 -3.522828 255 255 0 
13.899999 -1.886289 -3.527779 255 255 0 
13.900000 -1.744293 -3.532364 255 255 0 
13.899999 -1.602632 -3.536586 255 255 0 
13.900000 -1.461305 -3.540446 255 255 0 
13.899999 -1.320274 -3.543947 255 255 0 
13.899998 -1.179518 -3.547090 255 255 0 
13.900000 -1.038984 -3.549877 255 255 0 
13.899999 -0.898674 -3.552309 255 255 0 
13.899998 -0.758547 -3.554389 255 255 0 
13.899998 -0.618581 -3.556115 255 255 0 
13.899998 -0.478728 -3.557490 255 255 0 
13.899998 -0.338959 -3.558515 255 255 0 
13.899998 -0.199276 -3.559188 255 255 0 
13.899998 -0.059635 -3.559513 255 255 0 
13.899998 0.080003 -3.559488 255 255 0 
13.899998 0.219651 -3.559112 255 255 0 
13.899998 0.359338 -3.558387 255 255 0 
13.899998 0.499111 -3.557312 255 255 0 
13.899996 0.638975 -3.555886 255 255 0 
13.899998 0.778968 -3.554107 255 255 0 
13.899996 0.919120 -3.551976 255 255 0 
13.899998 1.059461 -3.549493 255 255 0 
13.899996 1.200019 -3.546654 255 255 0 
13.899995 1.340817 -3.543459 255 255 0 
13.899995 1.481884 -3.539906 255 255 0 
13.899995 1.623271 -3.535993 255 255 0 
13.899995 1.764962 -3.531719 255 255 0 
13.899995 1.907042 -3.527080 255 255 0 
13.899995 2.049493 -3.522075 255 255 0 
13.899995 2.192380 -3.516702 255 255 0 
13.899995 2.335722 -3.510957 255 255 0 
13.899995 2.479553 -3.504837 255 255 0 
13.899995 2.623878 -3.498339 255 255 0 
13.899995 2.768759 -3.491460 255 255 0 
13.899995 2.914237 -3.484196 255 255 0 
13.899995 3.060315 -3.476542 255 255 0 
13.899994 3.207047 -3.468496 255 255 0 
13.899995 3.354453 -3.460055 255 255 0 
13.899992 3.502572 -3.451210 255 255 0 
13.899995 3.651474 -3.441960 255 255 0 
13.899994 3.801128 -3.432297 255 255 0 
13.899994 3.951621 -3.422219 255 255 0 
13.899994 4.102969 -3.411717 255 255 0 
13.899992 4.255221 -3.400787 255 255 0 
13.899992 4.408423 -3.389423 255 255 0 
13.899992 4.562593 -3.377618 255 255 0 
13.899992 4.717776 -3.365366 255 255 0 
13.899992 4.874027 -3.352659 255 255 0 
13.899992 5.031406 -3.339491 255 255 0 
13.899991 5.189911 -3.325853 255 255 0 
13.899991 5.349614 -3.311738 255 255 0 
13.899992 5.510555 -3.297137 255 255 0 
13.899991 5.672785 -3.282042 255 255 0 
13.899991 5.836351 -3.266442 255 255 0 
13.899991 6.001302 -3.250330 255 255 0 
13.899991 6.167689 -3.233695 255 255 0 
13.899990 6.335564 -3.216527 255 255 0 
13.899991 6.504987 -3.198813 255 255 0 
13.899990 6.676009 -3.180546 255 255 0 
13.899990 6.848689 -3.161711 255 255 0 
13.899990 7.023087 -3.142297 255 255 0 
13.899990 7.199266 -3.122291 255 255 0 
13.899990 7.377286 -3.101679 255 255 0 
13.899990 7.557215 -3.080450 255 255 0 
13.899989 7.739119 -3.058586 255 255 0 
13.899990 7.923071 -3.036074 255 255 0 
18.630590 -10.583398 0.773511 255 255 0 
18.735971 -10.395713 0.773511 255 255 0 
18.839453 -10.206981 0.773511 255 255 0 
18.941034 -10.017216 0.773511 255 255 0 
19.040705 -9.826442 0.773511 255 255 0 
19.138456 -9.634672 0.773511 255 255 0 
19.234264 -9.441944 0.773511 255 255 0 
19.328146 -9.248254 0.773511 255 255 0 
19.420074 -9.053626 0.773511 255 255 0 
19.510040 -8.858090 0.773511 255 255 0 
19.598040 -8.661657 0.773511 255 255 0 
19.684055 -8.464360 0.773511 255 255 0 
19.768091 -8.266198 0.773511 255 255 0 
19.850128 -8.067204 0.773511 255 255 0 
19.930166 -7.867396 0.773511 255 255 0 
20.008190 -7.666795 0.773511 255 255 0 
20.084196 -7.465417 0.773511 255 255 0 
20.158171 -7.263297 0.773511 255 255 0 
20.230124 -7.060435 0.773511 255 255 0 
20.300022 -6.856862 0.773511 255 255 0 
20.367878 -6.652592 0.773511 255 255 0 
20.433676 -6.447654 0.773511 255 255 0 
20.497417 -6.242065 0.773511 255 255 0 
20.559078 -6.035866 0.773511 255 255 0 
20.618671 -5.829036 0.773511 255 255 0 
20.676189 -5.621622 0.773511 255 255 0 
20.731621 -5.413639 0.773511 255 255 0 
20.784950 -5.205119 0.773511 255 255 0 
20.836189 -4.996063 0.773511 255 255 0 
20.885324 -4.786505 0.773511 255 255 0 
20.932350 -4.576462 0.773511 255 255 0 
20.977270 -4.365960 0.773511 255 255 0 
21.020067 -4.155015 0.773511 255 255 0 
12.419016 -2.325481 -2.426489 255 255 0 
12.441751 -2.200610 -2.426489 255 255 0 
12.463230 -2.075518 -2.426489 255 255 0 
12.483448 -1.950215 -2.426489 255 255 0 
12.502411 -1.824715 -2.426489 255 255 0 
12.520107 -1.699033 -2.426489 255 255 0 
12.536544 -1.573184 -2.426489 255 255 0 
12.551714 -1.447170 -2.426489 255 255 0 
12.565619 -1.321011 -2.426489 255 255 0 
12.578256 -1.194718 -2.426489 255 255 0 
12.589622 -1.068305 -2.426489 255 255 0 
12.599716 -0.941790 -2.426489 255 255 0 
12.608540 -0.815173 -2.426489 255 255 0 
12.616093 -0.688475 -2.426489 255 255 0 
12.622375 -0.561707 -2.426489 255 255 0 
12.627378 -0.434882 -2.426489 255 255 0 
12.631112 -0.308014 -2.426489 255 255 0 
12.633567 -0.181120 -2.426489 255 255 0 
12.634749 -0.054203 -2.426489 255 255 0 
12.634656 0.072721 -2.426489 255 255 0 
12.633290 0.199636 -2.426489 255 255 0 
12.630644 0.326531 -2.426489 255 255 0 
12.626726 0.453393 -2.426489 255 255 0 
12.621535 0.580209 -2.426489 255 255 0 
12.615070 0.706966 -2.426489 255 255 0 
12.607332 0.833652 -2.426489 255 255 0 
12.598323 0.960255 -2.426489 255 255 0 
12.588041 1.086760 -2.426489 255 255 0 
12.576489 1.213155 -2.426489 255 255 0 
12.563669 1.339428 -2.426489 255 255 0 
12.549580 1.465566 -2.426489 255 255 0 
12.534225 1.591557 -2.426489 255 255 0 
12.517602 1.717385 -2.426489 255 255 0 
12.499722 1.843042 -2.426489 255 255 0 
12.480574 1.968512 -2.426489 255 255 0 
12.460173 2.093783 -2.426489 255 255 0 
12.438511 2.218844 -2.426489 255 255 0 
12.415593 2.343680 -2.426489 255 255 0 
12.391425 2.468279 -2.426489 255 255 0 
12.366006 2.592630 -2.426489 255 255 0 
12.339338 2.716720 -2.426489 255 255 0 
12.311425 2.840535 -2.426489 255 255 0 
12.282271 2.964063 -2.426489 255 255 0 
12.251875 3.087291 -2.426489 255 255 0 
12.220243 3.210210 -2.426489 255 255 0 
12.187380 3.332803 -2.426489 255 255 0 
12.153290 3.455053 -2.426489 255 255 0 
12.117969 3.576963 -2.426489 255 255 0 
12.099994 3.704213 -2.419421 255 255 0 
12.099993 3.837559 -2.404980 255 255 0 
12.099993 3.971756 -2.389979 255 255 0 
12.099993 4.106863 -2.374409 255 255 0 
12.099993 4.242870 -2.358262 255 255 0 
12.099993 4.379863 -2.341528 255 255 0 
12.099993 4.517834 -2.324197 255 255 0 
12.099993 4.656868 -2.306261 255 255 0 
12.099993 4.796959 -2.287706 255 255 0 
12.099993 4.938189 -2.268522 255 255 0 
12.099993 5.080563 -2.248700 255 255 0 
12.099993 5.224132 -2.228224 255 255 0 
12.099991 5.368980 -2.207087 255 255 0 
12.099991 5.515118 -2.185267 255 255 0 
12.099991 5.662611 -2.162760 255 255 0 
12.099993 5.811491 -2.139546 255 255 0 
12.099991 5.961817 -2.115611 255 255 0 
12.099991 6.113604 -2.090940 255 255 0 
12.099991 6.266985 -2.065518 255 255 0 
12.099990 6.421953 -2.039327 255 255 0 
12.099991 6.578581 -2.012347 255 255 0 
12.099990 6.736930 -1.984564 255 255 0 
12.099990 6.897062 -1.955956 255 255 0 
7.964940 -4.524606 -2.557394 255 255 0 
8.022118 -4.451096 -2.550629 255 255 0 
8.079095 -4.377152 -2.543601 255 255 0 
8.135875 -4.302765 -2.536307 255 255 0 
8.192461 -4.227928 -2.528749 255 255 0 
8.248855 -4.152636 -2.520920 255 255 0 
8.305057 -4.076883 -2.512822 255 255 0 
8.361073 -4.000658 -2.504451 255 255 0 
8.416905 -3.923956 -2.495807 255 255 0 
8.472552 -3.846769 -2.486884 255 255 0 
8.528021 -3.769090 -2.477684 255 255 0 
8.586160 -3.692142 -2.466690 255 255 0 
8.648385 -3.616398 -2.453171 255 255 0 
8.710750 -3.540097 -2.439235 255 255 0 
8.773258 -3.463228 -2.424873 255 255 0 
8.835924 -3.385772 -2.410084 255 255 0 
8.898752 -3.307718 -2.394857 255 255 0 
8.961748 -3.229054 -2.379189 255 255 0 
9.048942 -3.158135 -2.350671 255 255 0 
15.148882 -5.116929 0.773511 255 255 0 
15.199521 -4.964495 0.773511 255 255 0 
15.248620 -4.811560 0.773511 255 255 0 
15.296186 -4.658139 0.773511 255 255 0 
15.342204 -4.504263 0.773511 255 255 0 
15.386677 -4.349918 0.773511 255 255 0 
15.429601 -4.195134 0.773511 255 255 0 
15.470962 -4.039926 0.773511 255 255 0 
15.510760 -3.884318 0.773511 255 255 0 
15.549000 -3.728312 0.773511 255 255 0 
15.585665 -3.571928 0.773511 255 255 0 
15.620759 -3.415184 0.773511 255 255 0 
11.200000 -2.331052 -1.445539 255 255 0 
11.200000 -2.213903 -1.456901 255 255 0 
11.200000 -2.097223 -1.467656 255 255 0 
11.199999 -1.980989 -1.477810 255 255 0 
11.199999 -1.865153 -1.487370 255 255 0 
11.200000 -1.749716 -1.496341 255 255 0 
11.199999 -1.634633 -1.504726 255 255 0 
11.199999 -1.519889 -1.512530 255 255 0 
11.199999 -1.405478 -1.519756 255 255 0 
11.199999 -1.291333 -1.526411 255 255 0 
11.199999 -1.177460 -1.532495 255 255 0 
11.199999 -1.063810 -1.538013 255 255 0 
11.199999 -0.950394 -1.542968 255 255 0 
11.199997 -0.837175 -1.547360 255 255 0 
11.199997 -0.724125 -1.551195 255 255 0 
11.199997 -0.611201 -1.554471 255 255 0 
11.199997 -0.498437 -1.557193 255 255 0 
11.199997 -0.385748 -1.559361 255 255 0 
11.199997 -0.273116 -1.560976 255 255 0 
11.199997 -0.160571 -1.562038 255 255 0 
11.199997 -0.048067 -1.562549 255 255 0 
11.199997 0.064456 -1.562509 255 255 0 
11.199997 0.176974 -1.561918 255 255 0 
11.199997 0.289517 -1.560775 255 255 0 
11.199997 0.402148 -1.559079 255 255 0 
11.199997 0.514862 -1.556830 255 255 0 
11.199997 0.627665 -1.554029 255 255 0 
11.199996 0.740585 -1.550671 255 255 0 
11.199996 0.853652 -1.546756 255 255 0 
11.199996 0.966922 -1.542281 255 255 0 
11.199996 1.080362 -1.537245 255 255 0 
11.199996 1.194031 -1.531644 255 255 0 
11.199996 1.307944 -1.525477 255 255 0 
11.199996 1.422139 -1.518740 255 255 0 
11.199995 1.536613 -1.511427 255 255 0 
11.199996 1.651366 -1.503541 255 255 0 
11.199995 1.766522 -1.495070 255 255 0 
11.199995 1.882019 -1.486015 255 255 0 
11.199995 1.997907 -1.476368 255 255 0 
11.199995 2.114202 -1.466126 255 255 0 
11.199995 2.230945 -1.455283 255 255 0 
11.199995 2.348154 -1.443834 255 255 0 
11.199995 2.465857 -1.431771 255 255 0 
11.199994 2.584096 -1.419089 255 255 0 
11.199995 2.702885 -1.405783 255 255 0 
11.199995 2.822237 -1.391843 255 255 0 
11.199995 2.942195 -1.377260 255 255 0 
11.199994 3.062789 -1.362031 255 255 0 
11.199994 3.184041 -1.346145 255 255 0 
11.199995 3.305996 -1.329592 255 255 0 
11.199994 3.428676 -1.312363 255 255 0 
11.199994 3.552115 -1.294454 255 255 0 
11.199994 3.676338 -1.275846 255 255 0 
11.199994 3.801385 -1.256533 255 255 0 
11.199994 3.927291 -1.236505 255 255 0 
11.179289 4.046581 -1.226489 255 255 0 
11.138075 4.158691 -1.226489 255 255 0 
11.095737 4.270388 -1.226489 255 255 0 
11.052277 4.381608 -1.226489 255 255 0 
11.007709 4.492389 -1.226489 255 255 0 
10.962025 4.602757 -1.226489 255 255 0 
10.915236 4.712649 -1.226489 255 255 0 
10.867346 4.822046 -1.226489 255 255 0 
10.818359 4.930968 -1.226489 255 255 0 
10.768280 5.039392 -1.226489 255 255 0 
10.717115 5.147309 -1.226489 255 255 0 
10.664866 5.254706 -1.226489 255 255 0 
10.611546 5.361573 -1.226489 255 255 0 
10.557151 5.467897 -1.226489 255 255 0 
10.501692 5.573671 -1.226489 255 255 0 
10.445174 5.678883 -1.226489 255 255 0 
10.387600 5.783519 -1.226489 255 255 0 
10.328979 5.887574 -1.226489 255 255 0 
7.362870 -4.182591 -1.733849 255 255 0 
7.418848 -4.116371 -1.723606 255 255 0 
7.474809 -4.049759 -1.712955 255 255 0 
7.530764 -3.982743 -1.701894 255 255 0 
7.586714 -3.915316 -1.690417 255 255 0 
7.642666 -3.847468 -1.678521 255 255 0 
7.698624 -3.779191 -1.666203 255 255 0 
7.754599 -3.710469 -1.653456 255 255 0 
7.810596 -3.641294 -1.640278 255 255 0 
7.866619 -3.571658 -1.626664 255 255 0 
7.922674 -3.501548 -1.612608 255 255 0 
7.978765 -3.430955 -1.598108 255 255 0 
8.034904 -3.359864 -1.583155 255 255 0 
8.091094 -3.288265 -1.567747 255 255 0 
8.147341 -3.216147 -1.551876 255 255 0 
8.228896 -3.153171 -1.518645 255 255 0 
8.325949 -3.094804 -1.474787 255 255 0 
8.424337 -3.035417 -1.429804 255 255 0 
8.524126 -2.974971 -1.383662 255 255 0 
8.625349 -2.913435 -1.336324 255 255 0 
8.728062 -2.850775 -1.287760 255 255 0 
8.832311 -2.786952 -1.237927 255 255 0 
8.938153 -2.721928 -1.186789 255 255 0 
9.045628 -2.655672 -1.134306 255 255 0 
9.521525 -2.691799 -0.842302 255 255 0 
12.043345 -3.274450 0.773511 255 255 0 
12.075626 -3.153304 0.773511 255 255 0 
12.106695 -3.031847 0.773511 255 255 0 
9.957828 -2.387670 -0.626489 255 255 0 
9.981310 -2.287519 -0.626489 255 255 0 
10.003788 -2.187138 -0.626489 255 255 0 
10.025252 -2.086536 -0.626489 255 255 0 
10.045708 -1.985724 -0.626489 255 255 0 
10.065146 -1.884715 -0.626489 255 255 0 
10.083570 -1.783512 -0.626489 255 255 0 
10.100978 -1.682129 -0.626489 255 255 0 
10.117366 -1.580576 -0.626489 255 255 0 
10.132731 -1.478863 -0.626489 255 255 0 
10.147073 -1.377002 -0.626489 255 255 0 
10.160398 -1.275007 -0.626489 255 255 0 
10.172691 -1.172877 -0.626489 255 255 0 
10.183962 -1.070630 -0.626489 255 255 0 
10.194201 -0.968275 -0.626489 255 255 0 
10.203417 -0.865821 -0.626489 255 255 0 
10.211597 -0.763285 -0.626489 255 255 0 
10.218750 -0.660667 -0.626489 255 255 0 
10.224870 -0.557998 -0.626489 255 255 0 
10.229960 -0.455230 -0.626489 255 255 0 
10.234013 -0.352437 -0.626489 255 255 0 
10.237040 -0.249644 -0.626489 255 255 0 
10.239031 -0.146772 -0.626489 255 255 0 
10.239990 -0.043925 -0.626489 255 255 0 
10.239912 0.058946 -0.626489 255 255 0 
10.238802 0.161818 -0.626489 255 255 0 
10.236661 0.264664 -0.626489 255 255 0 
10.233490 0.367484 -0.626489 255 255 0 
10.229280 0.470277 -0.626489 255 255 0 
10.224042 0.572966 -0.626489 255 255 0 
10.217767 0.675653 -0.626489 255 255 0 
10.210467 0.778239 -0.626489 255 255 0 
10.202135 0.880796 -0.626489 255 255 0 
10.192771 0.983248 -0.626489 255 255 0 
10.182380 1.085570 -0.626489 255 255 0 
10.170962 1.187813 -0.626489 255 255 0 
10.158517 1.289925 -0.626489 255 255 0 
10.145048 1.391880 -0.626489 255 255 0 
10.130553 1.493729 -0.626489 255 255 0 
10.115040 1.595405 -0.626489 255 255 0 
10.098497 1.696932 -0.626489 255 255 0 
10.080942 1.798289 -0.626489 255 255 0 
10.062372 1.899464 -0.626489 255 255 0 
10.042784 2.000448 -0.626489 255 255 0 
10.022184 2.101229 -0.626489 255 255 0 
10.000568 2.201798 -0.626489 255 255 0 
9.977947 2.302147 -0.626489 255 255 0 
9.954314 2.402261 -0.626489 255 255 0 
9.929685 2.502134 -0.626489 255 255 0 
9.904047 2.601753 -0.626489 255 255 0 
9.877413 2.701111 -0.626489 255 255 0 
9.849783 2.800190 -0.626489 255 255 0 
9.821157 2.898994 -0.626489 255 255 0 
9.791540 2.997504 -0.626489 255 255 0 
9.760933 3.095711 -0.626489 255 255 0 
9.729343 3.193606 -0.626489 255 255 0 
9.696774 3.291180 -0.626489 255 255 0 
9.663225 3.388420 -0.626489 255 255 0 
9.628699 3.485319 -0.626489 255 255 0 
9.593203 3.581866 -0.626489 255 255 0 
9.556741 3.678051 -0.626489 255 255 0 
9.519308 3.773866 -0.626489 255 255 0 
9.480917 3.869300 -0.626489 255 255 0 
9.441572 3.964343 -0.626489 255 255 0 
9.401272 4.058986 -0.626489 255 255 0 
9.399993 4.170979 -0.599164 255 255 0 
9.399992 4.284481 -0.570067 255 255 0 
9.399992 4.399062 -0.540048 255 255 0 
9.399992 4.514723 -0.509087 255 255 0 
9.399992 4.631489 -0.477165 255 255 0 
9.399993 4.749441 -0.444262 255 255 0 
9.399992 4.868588 -0.410355 255 255 0 
9.399992 4.988987 -0.375421 255 255 0 
9.399992 5.110657 -0.339441 255 255 0 
9.399992 5.233657 -0.302383 255 255 0 
9.399991 5.358046 -0.264228 255 255 0 
6.992746 -3.972337 -0.741899 255 255 0 
7.025815 -3.898295 -0.747691 255 255 0 
7.058661 -3.824294 -0.752986 255 255 0 
7.091290 -3.750322 -0.757786 255 255 0 
7.123705 -3.676369 -0.762094 255 255 0 
7.155914 -3.602428 -0.765910 255 255 0 
7.187917 -3.528491 -0.769236 255 255 0 
7.219724 -3.454539 -0.772073 255 255 0 
7.251337 -3.380569 -0.774422 255 255 0 
7.282759 -3.306571 -0.776285 255 255 0 
7.332611 -3.240761 -0.761760 255 255 0 
7.390405 -3.177953 -0.739982 255 255 0 
7.473790 -3.125231 -0.696084 255 255 0 
7.577193 -3.079429 -0.635022 255 255 0 
7.745746 -3.057618 -0.519124 255 255 0 
7.921139 -3.035244 -0.397747 255 255 0 
8.103862 -3.012255 -0.270525 255 255 0 
8.294417 -2.988605 -0.137065 255 255 0 
8.493382 -2.964241 0.003079 255 255 0 
8.701362 -2.939111 0.150393 255 255 0 
8.919037 -2.913151 0.305393 255 255 0 
9.519247 -3.003708 0.773511 255 255 0 
9.548938 -2.907933 0.773511 255 255 0 
9.577665 -2.811871 0.773511 255 255 0 
9.605429 -2.715519 0.773511 255 255 0 
8.644137 -2.350243 -0.026489 255 255 0 
8.667310 -2.263291 -0.026489 255 255 0 
8.689608 -2.176115 -0.026489 255 255 0 
8.711030 -2.088715 -0.026489 255 255 0 
8.731573 -2.001104 -0.026489 255 255 0 
8.751230 -1.913291 -0.026489 255 255 0 
8.770013 -1.825285 -0.026489 255 255 0 
8.787907 -1.737095 -0.026489 255 255 0 
8.804911 -1.648733 -0.026489 255 255 0 
8.821027 -1.560203 -0.026489 255 255 0 
8.836256 -1.471514 -0.026489 255 255 0 
8.850592 -1.382676 -0.026489 255 255 0 
8.864035 -1.293699 -0.026489 255 255 0 
8.876583 -1.204591 -0.026489 255 255 0 
8.888233 -1.115366 -0.026489 255 255 0 
8.898992 -1.026024 -0.026489 255 255 0 
8.908846 -0.936578 -0.026489 255 255 0 
8.917808 -0.847039 -0.026489 255 255 0 
8.925866 -0.757414 -0.026489 255 255 0 
8.933023 -0.667716 -0.026489 255 255 0 
8.939280 -0.577947 -0.026489 255 255 0 
8.944636 -0.488119 -0.026489 255 255 0 
8.949088 -0.398243 -0.026489 255 255 0 
8.952634 -0.308326 -0.026489 255 255 0 
8.955284 -0.218378 -0.026489 255 255 0 
8.957024 -0.128412 -0.026489 255 255 0 
8.957862 -0.038429 -0.026489 255 255 0 
8.957795 0.051558 -0.026489 255 255 0 
8.956826 0.141539 -0.026489 255 255 0 
8.954952 0.231506 -0.026489 255 255 0 
8.952175 0.321449 -0.026489 255 255 0 
8.948494 0.411360 -0.026489 255 255 0 
8.943913 0.501229 -0.026489 255 255 0 
8.938423 0.591048 -0.026489 255 255 0 
8.932035 0.680807 -0.026489 255 255 0 
8.924746 0.770498 -0.026489 255 255 0 
8.916558 0.860110 -0.026489 255 255 0 
8.907467 0.949636 -0.026489 255 255 0 
8.897478 1.039066 -0.026489 255 255 0 
8.886590 1.128391 -0.026489 255 255 0 
8.874807 1.217602 -0.026489 255 255 0 
8.862130 1.306691 -0.026489 255 255 0 
8.848557 1.395647 -0.026489 255 255 0 
8.834088 1.484463 -0.026489 255 255 0 
8.818730 1.573130 -0.026489 255 255 0 
8.802483 1.661637 -0.026489 255 255 0 
8.785348 1.749976 -0.026489 255 255 0 
8.767327 1.838138 -0.026489 255 255 0 
8.748419 1.926116 -0.026489 255 255 0 
8.728631 2.013900 -0.026489 255 255 0 
8.707959 2.101479 -0.026489 255 255 0 
8.686410 2.188847 -0.026489 255 255 0 
8.663984 2.275994 -0.026489 255 255 0 
8.640685 2.362911 -0.026489 255 255 0 
8.616513 2.449585 -0.026489 255 255 0 
8.591472 2.536017 -0.026489 255 255 0 
8.565562 2.622193 -0.026489 255 255 0 
8.538791 2.708103 -0.026489 255 255 0 
8.511156 2.793742 -0.026489 255 255 0 
8.499993 2.884973 -0.012189 255 255 0 
8.499995 2.980520 0.012160 255 255 0 
8.499994 3.076766 0.037393 255 255 0 
8.499993 3.173726 0.063526 255 255 0 
8.499993 3.271328 0.090572 255 255 0 
8.499993 3.369800 0.118552 255 255 0 
8.499993 3.468987 0.147479 255 255 0 
8.499993 3.569007 0.177371 255 255 0 
8.499993 3.669838 0.208243 255 255 0 
8.499993 3.771623 0.240121 255 255 0 
8.499993 3.874270 0.273018 255 255 0 
8.499993 3.977868 0.306960 255 255 0 
8.499993 4.082445 0.341965 255 255 0 
8.499992 4.188047 0.378057 255 255 0 
8.499993 4.294692 0.415258 255 255 0 
8.499992 4.402428 0.453593 255 255 0 
8.499992 4.511288 0.493089 255 255 0 
8.499992 4.621317 0.533769 255 255 0 
8.497582 4.731230 0.573511 255 255 0 
8.449630 4.816346 0.573511 255 255 0 
7.021912 -3.988907 0.773511 255 255 0 
7.061627 -3.918168 0.773511 255 255 0 
7.100629 -3.847034 0.773511 255 255 0 
7.138917 -3.775512 0.773511 255 255 0 
7.176482 -3.703607 0.773511 255 255 0 
7.213326 -3.631330 0.773511 255 255 0 
7.249437 -3.558690 0.773511 255 255 0 
7.284819 -3.485687 0.773511 255 255 0 
7.319468 -3.412332 0.773511 255 255 0 
7.353376 -3.338634 0.773511 255 255 0 
7.386543 -3.264598 0.773511 255 255 0 
7.418963 -3.190236 0.773511 255 255 0 
7.450636 -3.115551 0.773511 255 255 0 
7.481556 -3.040547 0.773511 255 255 0 
7.511722 -2.965240 0.773511 255 255 0 
7.541129 -2.889632 0.773511 255 255 0 
7.569776 -2.813733 0.773511 255 255 0 
7.597661 -2.737553 0.773511 255 255 0 
7.624774 -2.661094 0.773511 255 255 0 
7.651122 -2.584366 0.773511 255 255 0 
7.676697 -2.507377 0.773511 255 255 0 
7.600000 -2.398144 0.670733 255 255 0 
7.600000 -2.314399 0.646801 255 255 0 
7.600000 -2.231233 0.623791 255 255 0 
7.600000 -2.148540 0.601683 255 255 0 
7.600000 -2.066353 0.580466 255 255 0 
7.613404 -1.988084 0.573511 255 255 0 
7.632989 -1.911509 0.573511 255 255 0 
7.651808 -1.834736 0.573511 255 255 0 
7.669851 -1.757778 0.573511 255 255 0 
7.687121 -1.680643 0.573511 255 255 0 
7.703618 -1.603338 0.573511 255 255 0 
7.719335 -1.525872 0.573511 255 255 0 
7.734271 -1.448255 0.573511 255 255 0 
7.748429 -1.370488 0.573511 255 255 0 
7.761805 -1.292584 0.573511 255 255 0 
7.774398 -1.214548 0.573511 255 255 0 
7.786207 -1.136390 0.573511 255 255 0 
7.797230 -1.058118 0.573511 255 255 0 
7.807465 -0.979742 0.573511 255 255 0 
7.816913 -0.901264 0.573511 255 255 0 
7.825572 -0.822695 0.573511 255 255 0 
7.833442 -0.744043 0.573511 255 255 0 
7.840519 -0.665315 0.573511 255 255 0 
7.846807 -0.586525 0.573511 255 255 0 
7.852304 -0.507671 0.573511 255 255 0 
7.857008 -0.428766 0.573511 255 255 0 
7.860918 -0.349818 0.573511 255 255 0 
7.864034 -0.270835 0.573511 255 255 0 
7.866360 -0.191824 0.573511 255 255 0 
7.867890 -0.112798 0.573511 255 255 0 
7.868627 -0.033756 0.573511 255 255 0 
7.868567 0.045289 0.573511 255 255 0 
7.867715 0.124328 0.573511 255 255 0 
7.866068 0.203356 0.573511 255 255 0 
7.863631 0.282362 0.573511 255 255 0 
7.860396 0.361340 0.573511 255 255 0 
7.856370 0.440282 0.573511 255 255 0 
7.851551 0.519179 0.573511 255 255 0 
7.845941 0.598024 0.573511 255 255 0 
7.839539 0.676809 0.573511 255 255 0 
7.832343 0.755525 0.573511 255 255 0 
7.824358 0.834165 0.573511 255 255 0 
7.815583 0.912720 0.573511 255 255 0 
7.806020 0.991184 0.573511 255 255 0 
7.795670 1.069547 0.573511 255 255 0 
7.784532 1.147803 0.573511 255 255 0 
7.772611 1.225944 0.573511 255 255 0 
7.759903 1.303959 0.573511 255 255 0 
7.746414 1.381844 0.573511 255 255 0 
7.732141 1.459589 0.573511 255 255 0 
7.717090 1.537187 0.573511 255 255 0 
7.701258 1.614630 0.573511 255 255 0 
7.684649 1.691909 0.573511 255 255 0 
7.667267 1.769018 0.573511 255 255 0 
7.649109 1.845949 0.573511 255 255 0 
7.630180 1.922693 0.573511 255 255 0 
7.610481 1.999243 0.573511 255 255 0 
7.599995 2.078328 0.583504 255 255 0 
7.599995 2.160617 0.604846 255 255 0 
7.599995 2.243348 0.627087 255 255 0 
7.599995 2.326613 0.650231 255 255 0 
7.599995 2.410418 0.674299 255 255 0 
7.599995 2.494657 0.699296 255 255 0 
7.599994 2.579516 0.725243 255 255 0 
7.599995 2.664920 0.752152 255 255 0 
7.593637 2.748684 0.773511 255 255 0 
7.565645 2.824825 0.773511 255 255 0 
7.536887 2.900681 0.773511 255 255 0 
7.507368 2.976245 0.773511 255 255 0 
7.477091 3.051509 0.773511 255 255 0 
7.446063 3.126465 0.773511 255 255 0 
7.414279 3.201104 0.773511 255 255 0 
7.381749 3.275421 0.773511 255 255 0 
7.348474 3.349407 0.773511 255 255 0 
7.314456 3.423055 0.773511 255 255 0 
7.279704 3.496359 0.773511 255 255 0 
7.244215 3.569310 0.773511 255 255 0 
7.207994 3.641899 0.773511 255 255 0 
7.171047 3.714122 0.773511 255 255 0 
7.133376 3.785970 0.773511 255 255 0 
7.094985 3.857435 0.773511 255 255 0 
7.055878 3.928512 0.773511 255 255 0 
7.016059 3.999192 0.773511 255 255 0 
5.689919 -3.232248 0.773511 255 255 0 
5.722102 -3.174927 0.773511 255 255 0 
5.753706 -3.117287 0.773511 255 255 0 
5.784731 -3.059332 0.773511 255 255 0 
5.815169 -3.001067 0.773511 255 255 0 
5.845024 -2.942501 0.773511 255 255 0 
5.874286 -2.883640 0.773511 255 255 0 
5.902956 -2.824485 0.773511 255 255 0 
5.931033 -2.765044 0.773511 255 255 0 
5.958509 -2.705325 0.773511 255 255 0 
5.985383 -2.645334 0.773511 255 255 0 
6.011652 -2.585078 0.773511 255 255 0 
6.037317 -2.524559 0.773511 255 255 0 
6.062373 -2.463784 0.773511 255 255 0 
6.086818 -2.402761 0.773511 255 255 0 
6.110648 -2.341495 0.773511 255 255 0 
6.133859 -2.279993 0.773511 255 255 0 
6.156453 -2.218264 0.773511 255 255 0 
6.178425 -2.156308 0.773511 255 255 0 
6.199774 -2.094136 0.773511 255 255 0 
6.220499 -2.031750 0.773511 255 255 0 
6.240592 -1.969161 0.773511 255 255 0 
6.260058 -1.906372 0.773511 255 255 0 
6.278893 -1.843398 0.773511 255 255 0 
6.297091 -1.780230 0.773511 255 255 0 
6.314659 -1.716885 0.773511 255 255 0 
6.331586 -1.653365 0.773511 255 255 0 
6.347875 -1.589682 0.773511 255 255 0 
6.363523 -1.525835 0.773511 255 255 0 
6.378531 -1.461834 0.773511 255 255 0 
6.392893 -1.397686 0.773511 255 255 0 
6.406610 -1.333396 0.773511 255 255 0 
6.419680 -1.268972 0.773511 255 255 0 
6.432105 -1.204423 0.773511 255 255 0 
6.443880 -1.139749 0.773511 255 255 0 
6.455004 -1.074961 0.773511 255 255 0 
6.465476 -1.010064 0.773511 255 255 0 
6.475296 -0.945065 0.773511 255 255 0 
6.484462 -0.879970 0.773511 255 255 0 
6.492975 -0.814790 0.773511 255 255 0 
6.500831 -0.749525 0.773511 255 255 0 
6.508034 -0.684184 0.773511 255 255 0 
6.514577 -0.618774 0.773511 255 255 0 
6.520463 -0.553301 0.773511 255 255 0 
6.525694 -0.487776 0.773511 255 255 0 
6.530263 -0.422198 0.773511 255 255 0 
6.534175 -0.356578 0.773511 255 255 0 
6.537429 -0.290922 0.773511 255 255 0 
6.540021 -0.225237 0.773511 255 255 0 
6.541953 -0.159529 0.773511 255 255 0 
6.543227 -0.093807 0.773511 255 255 0 
6.543838 -0.028074 0.773511 255 255 0 
6.543790 0.037663 0.773511 255 255 0 
6.543081 0.103395 0.773511 255 255 0 
6.541712 0.169117 0.773511 255 255 0 
6.539684 0.234822 0.773511 255 255 0 
6.536994 0.300503 0.773511 255 255 0 
6.533648 0.366154 0.773511 255 255 0 
6.529637 0.431768 0.773511 255 255 0 
6.524973 0.497338 0.773511 255 255 0 
6.519647 0.562858 0.773511 255 255 0 
6.513666 0.628322 0.773511 255 255 0 
6.507024 0.693721 0.773511 255 255 0 
6.499726 0.759051 0.773511 255 255 0 
6.491774 0.824304 0.773511 255 255 0 
6.483165 0.889474 0.773511 255 255 0 
6.473904 0.954555 0.773511 255 255 0 
6.463988 1.019539 0.773511 255 255 0 
6.453421 1.084420 0.773511 255 255 0 
6.442203 1.149192 0.773511 255 255 0 
6.430334 1.213847 0.773511 255 255 0 
6.417815 1.278381 0.773511 255 255 0 
6.404649 1.342785 0.773511 255 255 0 
6.390838 1.407054 0.773511 255 255 0 
6.376381 1.471180 0.773511 255 255 0 
6.361279 1.535159 0.773511 255 255 0 
6.345539 1.598982 0.773511 255 255 0 
6.329156 1.662644 0.773511 255 255 0 
6.312136 1.726138 0.773511 255 255 0 
6.294477 1.789455 0.773511 255 255 0 
6.276186 1.852594 0.773511 255 255 0 
6.257257 1.915546 0.773511 255 255 0 
6.237700 1.978306 0.773511 255 255 0 
6.217511 2.040866 0.773511 255 255 0 
6.196700 2.103220 0.773511 255 255 0 
6.175259 2.165361 0.773511 255 255 0 
6.153194 2.227284 0.773511 255 255 0 
6.130511 2.288982 0.773511 255 255 0 
6.107207 2.350449 0.773511 255 255 0 
6.083289 2.411679 0.773511 255 255 0 
6.058756 2.472666 0.773511 255 255 0 
6.033611 2.533403 0.773511 255 255 0 
6.007860 2.593884 0.773511 255 255 0 
5.981500 2.654104 0.773511 255 255 0 
5.954537 2.714056 0.773511 255 255 0 
5.926972 2.773733 0.773511 255 255 0 
5.898810 2.833133 0.773511 255 255 0 
5.870054 2.892244 0.773511 255 255 0 
5.840703 2.951064 0.773511 255 255 0 
5.810766 3.009587 0.773511 255 255 0 
5.780239 3.067806 0.773511 255 255 0 
5.749131 3.125716 0.773511 255 255 0 
5.717442 3.183309 0.773511 255 255 0 
5.685177 3.240582 0.773511 255 255 0 
4.573828 -2.598235 0.773511 255 255 0 
4.599699 -2.552159 0.773511 255 255 0 
4.625102 -2.505824 0.773511 255 255 0 
4.650042 -2.459237 0.773511 255 255 0 
4.674512 -2.412402 0.773511 255 255 0 
4.698509 -2.365322 0.773511 255 255 0 
4.722031 -2.318007 0.773511 255 255 0 
4.745079 -2.270456 0.773511 255 255 0 
4.767648 -2.222675 0.773511 255 255 0 
4.789734 -2.174670 0.773511 255 255 0 
4.811337 -2.126447 0.773511 255 255 0 
4.832455 -2.078010 0.773511 255 255 0 
4.853086 -2.029361 0.773511 255 255 0 
4.873227 -1.980507 0.773511 255 255 0 
4.892873 -1.931454 0.773511 255 255 0 
4.912030 -1.882206 0.773511 255 255 0 
4.930689 -1.832768 0.773511 255 255 0 
4.948850 -1.783147 0.773511 255 255 0 
4.966515 -1.733345 0.773511 255 255 0 
4.983675 -1.683367 0.773511 255 255 0 
5.000334 -1.633219 0.773511 255 255 0 
5.016487 -1.582907 0.773511 255 255 0 
5.032136 -1.532434 0.773511 255 255 0 
5.047274 -1.481812 0.773511 255 255 0 
5.061904 -1.431035 0.773511 255 255 0 
5.076026 -1.380115 0.773511 255 255 0 
5.089631 -1.329055 0.773511 255 255 0 
5.102724 -1.277863 0.773511 255 255 0 
5.115305 -1.226540 0.773511 255 255 0 
5.127368 -1.175092 0.773511 255 255 0 
5.138914 -1.123527 0.773511 255 255 0 
5.149939 -1.071848 0.773511 255 255 0 
5.160447 -1.020061 0.773511 255 255 0 
5.170434 -0.968173 0.773511 255 255 0 
5.179899 -0.916186 0.773511 255 255 0 
5.188841 -0.864106 0.773511 255 255 0 
5.197260 -0.811938 0.773511 255 255 0 
5.205153 -0.759688 0.773511 255 255 0 
5.212520 -0.707363 0.773511 255 255 0 
5.219363 -0.654968 0.773511 255 255 0 
5.225678 -0.602504 0.773511 255 255 0 
5.231468 -0.549980 0.773511 255 255 0 
5.236730 -0.497400 0.773511 255 255 0 
5.241462 -0.444770 0.773511 255 255 0 
5.245664 -0.392098 0.773511 255 255 0 
5.249340 -0.339384 0.773511 255 255 0 
5.252485 -0.286635 0.773511 255 255 0 
5.255097 -0.233858 0.773511 255 255 0 
5.257180 -0.181057 0.773511 255 255 0 
5.258736 -0.128237 0.773511 255 255 0 
5.259758 -0.075407 0.773511 255 255 0 
5.260252 -0.022567 0.773511 255 255 0 
5.260211 0.030275 0.773511 255 255 0 
5.259641 0.083114 0.773511 255 255 0 
5.258541 0.135945 0.773511 255 255 0 
5.256910 0.188761 0.773511 255 255 0 
5.254748 0.241559 0.773511 255 255 0 
5.252058 0.294332 0.773511 255 255 0 
5.248834 0.347075 0.773511 255 255 0 
5.245085 0.399784 0.773511 255 255 0 
5.240804 0.452452 0.773511 255 255 0 
5.235995 0.505075 0.773511 255 255 0 
5.230658 0.557646 0.773511 255 255 0 
5.224792 0.610162 0.773511 255 255 0 
5.218398 0.662615 0.773511 255 255 0 
5.211480 0.715002 0.773511 255 255 0 
5.204034 0.767317 0.773511 255 255 0 
5.196062 0.819554 0.773511 255 255 0 
5.187570 0.871709 0.773511 255 255 0 
5.178551 0.923775 0.773511 255 255 0 
5.169007 0.975748 0.773511 255 255 0 
5.158947 1.027624 0.773511 255 255 0 
5.148364 1.079395 0.773511 255 255 0 
5.137261 1.131057 0.773511 255 255 0 
5.125639 1.182605 0.773511 255 255 0 
5.113502 1.234034 0.773511 255 255 0 
5.100848 1.285338 0.773511 255 255 0 
5.087679 1.336512 0.773511 255 255 0 
5.073997 1.387552 0.773511 255 255 0 
5.059802 1.438449 0.773511 255 255 0 
5.045097 1.489204 0.773511 255 255 0 
5.029884 1.539808 0.773511 255 255 0 
5.014163 1.590257 0.773511 255 255 0 
4.997934 1.640546 0.773511 255 255 0 
4.981203 1.690668 0.773511 255 255 0 
4.963968 1.740621 0.773511 255 255 0 
4.946233 1.790397 0.773511 255 255 0 
4.927997 1.839993 0.773511 255 255 0 
4.909267 1.889404 0.773511 255 255 0 
4.890039 1.938623 0.773511 255 255 0 
4.870318 1.987647 0.773511 255 255 0 
4.850106 2.036471 0.773511 255 255 0 
4.829404 2.085089 0.773511 255 255 0 
4.808216 2.133496 0.773511 255 255 0 
4.786540 2.181688 0.773511 255 255 0 
4.764384 2.229660 0.773511 255 255 0 
4.741746 2.277407 0.773511 255 255 0 
4.718630 2.324925 0.773511 255 255 0 
4.695036 2.372207 0.773511 255 255 0 
4.670970 2.419250 0.773511 255 255 0 
4.646433 2.466049 0.773511 255 255 0 
4.621426 2.512599 0.773511 255 255 0 
4.595954 2.558897 0.773511 255 255 0 
4.570015 2.604935 0.773511 255 255 0 
3.605512 -2.048168 0.773511 255 255 0 
3.625905 -2.011845 0.773511 255 255 0 
3.645931 -1.975321 0.773511 255 255 0 
3.665590 -1.938596 0.773511 255 255 0 
3.684878 -1.901676 0.773511 255 255 0 
3.703796 -1.864564 0.773511 255 255 0 
3.722338 -1.827266 0.773511 255 255 0 
3.740505 -1.789781 0.773511 255 255 0 
3.758297 -1.752116 0.773511 255 255 0 
3.775708 -1.714275 0.773511 255 255 0 
3.792737 -1.676260 0.773511 255 255 0 
3.809384 -1.638077 0.773511 255 255 0 
3.825646 -1.599729 0.773511 255 255 0 
3.841523 -1.561218 0.773511 255 255 0 
3.857010 -1.522550 0.773511 255 255 0 
3.872111 -1.483727 0.773511 255 255 0 
3.886821 -1.444756 0.773511 255 255 0 
3.901137 -1.405640 0.773511 255 255 0 
3.915062 -1.366381 0.773511 255 255 0 
3.928589 -1.326984 0.773511 255 255 0 
3.941721 -1.287453 0.773511 255 255 0 
3.954455 -1.247792 0.773511 255 255 0 
3.966789 -1.208005 0.773511 255 255 0 
3.978725 -1.168100 0.773511 255 255 0 
3.990257 -1.128073 0.773511 255 255 0 
4.001389 -1.087933 0.773511 255 255 0 
4.012112 -1.047683 0.773511 255 255 0 
4.022436 -1.007329 0.773511 255 255 0 
4.032351 -0.966870 0.773511 255 255 0 
4.041860 -0.926315 0.773511 255 255 0 
4.050960 -0.885667 0.773511 255 255 0 
4.059654 -0.844929 0.773511 255 255 0 
4.067938 -0.804106 0.773511 255 255 0 
4.075809 -0.763203 0.773511 255 255 0 
4.083270 -0.722221 0.773511 255 255 0 
4.090318 -0.681167 0.773511 255 255 0 
4.096956 -0.640044 0.773511 255 255 0 
4.103178 -0.598856 0.773511 255 255 0 
4.108985 -0.557608 0.773511 255 255 0 
4.114380 -0.516306 0.773511 255 255 0 
4.119359 -0.474949 0.773511 255 255 0 
4.123921 -0.433545 0.773511 255 255 0 
4.128070 -0.392097 0.773511 255 255 0 
4.131800 -0.350609 0.773511 255 255 0 
4.135113 -0.309088 0.773511 255 255 0 
4.138010 -0.267534 0.773511 255 255 0 
4.140488 -0.225952 0.773511 255 255 0 
4.142550 -0.184348 0.773511 255 255 0 
4.144191 -0.142725 0.773511 255 255 0 
4.145416 -0.101088 0.773511 255 255 0 
4.146222 -0.059442 0.773511 255 255 0 
4.146610 -0.017789 0.773511 255 255 0 
4.146579 0.023866 0.773511 255 255 0 
4.146132 0.065518 0.773511 255 255 0 
4.145264 0.107164 0.773511 255 255 0 
4.143976 0.148799 0.773511 255 255 0 
4.142273 0.190419 0.773511 255 255 0 
4.140152 0.232020 0.773511 255 255 0 
4.137613 0.273597 0.773511 255 255 0 
4.134656 0.315147 0.773511 255 255 0 
4.131280 0.356664 0.773511 255 255 0 
4.127491 0.398146 0.773511 255 255 0 
4.123283 0.439588 0.773511 255 255 0 
4.118659 0.480985 0.773511 255 255 0 
4.113619 0.522334 0.773511 255 255 0 
4.108166 0.563630 0.773511 255 255 0 
4.102294 0.604869 0.773511 255 255 0 
4.096013 0.646047 0.773511 255 255 0 
4.089316 0.687160 0.773511 255 255 0 
4.082210 0.728204 0.773511 255 255 0 
4.074687 0.769174 0.773511 255 255 0 
4.066755 0.810067 0.773511 255 255 0 
4.058412 0.850878 0.773511 255 255 0 
4.049658 0.891603 0.773511 255 255 0 
4.040499 0.932237 0.773511 255 255 0 
4.030930 0.972778 0.773511 255 255 0 
4.020955 1.013221 0.773511 255 255 0 
4.010574 1.053562 0.773511 255 255 0 
3.999786 1.093796 0.773511 255 255 0 
3.988599 1.133918 0.773511 255 255 0 
3.977006 1.173927 0.773511 255 255 0 
3.965015 1.213818 0.773511 255 255 0 
3.952622 1.253587 0.773511 255 255 0 
3.939829 1.293228 0.773511 255 255 0 
3.926641 1.332740 0.773511 255 255 0 
3.913054 1.372117 0.773511 255 255 0 
3.899073 1.411355 0.773511 255 255 0 
3.884700 1.450451 0.773511 255 255 0 
3.869934 1.489401 0.773511 255 255 0 
3.854776 1.528201 0.773511 255 255 0 
3.839233 1.566846 0.773511 255 255 0 
3.823297 1.605333 0.773511 255 255 0 
3.806979 1.643658 0.773511 255 255 0 
3.790276 1.681817 0.773511 255 255 0 
3.773191 1.719807 0.773511 255 255 0 
3.755724 1.757622 0.773511 255 255 0 
3.737877 1.795261 0.773511 255 255 0 
3.719656 1.832718 0.773511 255 255 0 
3.701060 1.869991 0.773511 255 255 0 
3.682086 1.907074 0.773511 255 255 0 
3.662745 1.943966 0.773511 255 255 0 
3.643032 1.980661 0.773511 255 255 0 
3.622952 2.017157 0.773511 255 255 0 
3.602507 2.053448 0.773511 255 255 0 
2.739692 -1.556326 0.773511 255 255 0 
2.755190 -1.528726 0.773511 255 255 0 
2.770406 -1.500972 0.773511 255 255 0 
2.785344 -1.473066 0.773511 255 255 0 
2.800001 -1.445012 0.773511 255 255 0 
2.814374 -1.416813 0.773511 255 255 0 
2.828465 -1.388471 0.773511 255 255 0 
2.842270 -1.359988 0.773511 255 255 0 
2.855788 -1.331368 0.773511 255 255 0 
2.869019 -1.302614 0.773511 255 255 0 
2.881958 -1.273727 0.773511 255 255 0 
2.894608 -1.244714 0.773511 255 255 0 
2.906966 -1.215574 0.773511 255 255 0 
2.919029 -1.186311 0.773511 255 255 0 
2.930800 -1.156928 0.773511 255 255 0 
2.942274 -1.127429 0.773511 255 255 0 
2.953451 -1.097816 0.773511 255 255 0 
2.964330 -1.068094 0.773511 255 255 0 
2.974910 -1.038262 0.773511 255 255 0 
2.985189 -1.008325 0.773511 255 255 0 
2.995165 -0.978287 0.773511 255 255 0 
3.004844 -0.948151 0.773511 255 255 0 
3.014216 -0.917918 0.773511 255 255 0 
3.023283 -0.887595 0.773511 255 255 0 
3.032048 -0.857181 0.773511 255 255 0 
3.040505 -0.826680 0.773511 255 255 0 
3.048655 -0.796095 0.773511 255 255 0 
3.056499 -0.765431 0.773511 255 255 0 
3.064034 -0.734689 0.773511 255 255 0 
3.071258 -0.703873 0.773511 255 255 0 
3.078174 -0.672985 0.773511 255 255 0 
3.084780 -0.642030 0.773511 255 255 0 
3.091075 -0.611010 0.773511 255 255 0 
3.097056 -0.579930 0.773511 255 255 0 
3.102726 -0.548789 0.773511 255 255 0 
3.108080 -0.517593 0.773511 255 255 0 
3.113122 -0.486345 0.773511 255 255 0 
3.117853 -0.455049 0.773511 255 255 0 
3.122267 -0.423705 0.773511 255 255 0 
3.126364 -0.392321 0.773511 255 255 0 
3.130148 -0.360896 0.773511 255 255 0 
3.133613 -0.329434 0.773511 255 255 0 
3.136767 -0.297940 0.773511 255 255 0 
3.139600 -0.266415 0.773511 255 255 0 
3.142117 -0.234864 0.773511 255 255 0 
3.144318 -0.203289 0.773511 255 255 0 
3.146202 -0.171692 0.773511 255 255 0 
3.147768 -0.140079 0.773511 255 255 0 
3.149018 -0.108452 0.773511 255 255 0 
3.149949 -0.076813 0.773511 255 255 0 
3.150561 -0.045168 0.773511 255 255 0 
3.150855 -0.013518 0.773511 255 255 0 
3.150832 0.018135 0.773511 255 255 0 
3.150490 0.049785 0.773511 255 255 0 
3.149832 0.081430 0.773511 255 255 0 
3.148853 0.113067 0.773511 255 255 0 
3.147560 0.144692 0.773511 255 255 0 
3.145947 0.176303 0.773511 255 255 0 
3.144018 0.207896 0.773511 255 255 0 
3.141772 0.239468 0.773511 255 255 0 
3.139205 0.271016 0.773511 255 255 0 
3.136328 0.302537 0.773511 255 255 0 
3.133129 0.334026 0.773511 255 255 0 
3.129614 0.365482 0.773511 255 255 0 
3.125786 0.396902 0.773511 255 255 0 
3.121641 0.428281 0.773511 255 255 0 
3.117182 0.459618 0.773511 255 255 0 
3.112406 0.490907 0.773511 255 255 0 
3.107317 0.522147 0.773511 255 255 0 
3.101917 0.553335 0.773511 255 255 0 
3.096202 0.584467 0.773511 255 255 0 
3.090175 0.615540 0.773511 255 255 0 
3.083835 0.646550 0.773511 255 255 0 
3.077184 0.677496 0.773511 255 255 0 
3.070225 0.708373 0.773511 255 255 0 
3.062951 0.739178 0.773511 255 255 0 
3.055374 0.769909 0.773511 255 255 0 
3.047485 0.800562 0.773511 255 255 0 
3.039291 0.831134 0.773511 255 255 0 
3.030788 0.861622 0.773511 255 255 0 
3.021980 0.892023 0.773511 255 255 0 
3.012867 0.922335 0.773511 255 255 0 
3.003449 0.952554 0.773511 255 255 0 
2.993731 0.982676 0.773511 255 255 0 
2.983706 1.012699 0.773511 255 255 0 
2.973384 1.042620 0.773511 255 255 0 
2.962760 1.072436 0.773511 255 255 0 
2.951838 1.102144 0.773511 255 255 0 
2.940616 1.131740 0.773511 255 255 0 
2.929101 1.161223 0.773511 255 255 0 
2.917288 1.190588 0.773511 255 255 0 
2.905181 1.219832 0.773511 255 255 0 
2.892780 1.248954 0.773511 255 255 0 
2.880090 1.277950 0.773511 255 255 0 
2.867105 1.306817 0.773511 255 255 0 
2.853834 1.335552 0.773511 255 255 0 
2.840275 1.364152 0.773511 255 255 0 
2.826429 1.392614 0.773511 255 255 0 
2.812296 1.420936 0.773511 255 255 0 
2.797879 1.449115 0.773511 255 255 0 
2.783182 1.477147 0.773511 255 255 0 
2.768202 1.505030 0.773511 255 255 0 
2.752945 1.532762 0.773511 255 255 0 
2.737408 1.560339 0.773511 255 255 0 
1.944414 -1.104555 0.773511 255 255 0 
1.955413 -1.084967 0.773511 255 255 0 
1.966213 -1.065270 0.773510 255 255 0 
1.976814 -1.045465 0.773511 255 255 0 
1.987217 -1.025555 0.773511 255 255 0 
1.997419 -1.005540 0.773511 255 255 0 
2.007418 -0.985426 0.773511 255 255 0 
2.017214 -0.965211 0.773511 255 255 0 
2.026808 -0.944898 0.773510 255 255 0 
2.036200 -0.924491 0.773511 255 255 0 
2.045384 -0.903990 0.773511 255 255 0 
2.054362 -0.883398 0.773510 255 255 0 
2.063130 -0.862718 0.773511 255 255 0 
2.071693 -0.841949 0.773511 255 255 0 
2.080045 -0.821096 0.773510 255 255 0 
2.088188 -0.800159 0.773510 255 255 0 
2.096122 -0.779142 0.773510 255 255 0 
2.103843 -0.758047 0.773511 255 255 0 
2.111351 -0.736875 0.773511 255 255 0 
2.118646 -0.715629 0.773510 255 255 0 
2.125730 -0.694310 0.773510 255 255 0 
2.132598 -0.672921 0.773511 255 255 0 
2.139248 -0.651465 0.773511 255 255 0 
2.145685 -0.629944 0.773510 255 255 0 
2.151903 -0.608358 0.773510 255 255 0 
2.157907 -0.586711 0.773511 255 255 0 
2.163691 -0.565005 0.773511 255 255 0 
2.169258 -0.543242 0.773511 255 255 0 
2.174604 -0.521423 0.773511 255 255 0 
2.179731 -0.499553 0.773510 255 255 0 
2.184641 -0.477631 0.773510 255 255 0 
2.189330 -0.455661 0.773511 255 255 0 
2.193795 -0.433646 0.773511 255 255 0 
2.198042 -0.411588 0.773510 255 255 0 
2.202067 -0.389487 0.773511 255 255 0 
2.205867 -0.367346 0.773511 255 255 0 
2.209447 -0.345169 0.773510 255 255 0 
2.212800 -0.322957 0.773510 255 255 0 
2.215934 -0.300712 0.773510 255 255 0 
2.218843 -0.278438 0.773511 255 255 0 
2.221527 -0.256135 0.773510 255 255 0 
2.223988 -0.233806 0.773510 255 255 0 
2.226224 -0.211454 0.773511 255 255 0 
2.228237 -0.189080 0.773510 255 255 0 
2.230023 -0.166688 0.773510 255 255 0 
2.231584 -0.144278 0.773510 255 255 0 
2.232924 -0.121854 0.773511 255 255 0 
2.234034 -0.099417 0.773511 255 255 0 
2.234921 -0.076970 0.773511 255 255 0 
2.235581 -0.054516 0.773511 255 255 0 
2.236014 -0.032057 0.773511 255 255 0 
2.236224 -0.009594 0.773511 255 255 0 
2.236208 0.012870 0.773511 255 255 0 
2.235964 0.035333 0.773511 255 255 0 
2.235498 0.057792 0.773510 255 255 0 
2.234803 0.080246 0.773510 255 255 0 
2.233884 0.102691 0.773511 255 255 0 
2.232740 0.125126 0.773511 255 255 0 
2.231369 0.147548 0.773510 255 255 0 
2.229778 0.169955 0.773511 255 255 0 
2.227958 0.192345 0.773511 255 255 0 
2.225912 0.214716 0.773511 255 255 0 
2.223643 0.237065 0.773510 255 255 0 
2.221150 0.259390 0.773510 255 255 0 
2.218433 0.281689 0.773511 255 255 0 
2.215492 0.303960 0.773511 255 255 0 
2.212325 0.326200 0.773511 255 255 0 
2.208937 0.348407 0.773510 255 255 0 
2.205325 0.370579 0.773510 255 255 0 
2.201490 0.392713 0.773511 255 255 0 
2.197435 0.414808 0.773510 255 255 0 
2.193159 0.436861 0.773511 255 255 0 
2.188661 0.458870 0.773511 255 255 0 
2.183938 0.480832 0.773511 255 255 0 
2.178998 0.502746 0.773510 255 255 0 
2.173838 0.524610 0.773511 255 255 0 
2.168459 0.546420 0.773510 255 255 0 
2.162860 0.568175 0.773510 255 255 0 
2.157045 0.589873 0.773511 255 255 0 
2.151011 0.611510 0.773511 255 255 0 
2.144757 0.633087 0.773511 255 255 0 
2.138291 0.654599 0.773510 255 255 0 
2.131609 0.676046 0.773510 255 255 0 
2.124708 0.697425 0.773510 255 255 0 
2.117594 0.718733 0.773510 255 255 0 
2.110270 0.739968 0.773510 255 255 0 
2.102728 0.761129 0.773510 255 255 0 
2.094978 0.782213 0.773511 255 255 0 
2.087015 0.803219 0.773510 255 255 0 
2.078840 0.824143 0.773510 255 255 0 
2.070458 0.844984 0.773511 255 255 0 
2.061865 0.865739 0.773511 255 255 0 
2.053063 0.886408 0.773511 255 255 0 
2.044056 0.906986 0.773511 255 255 0 
2.034841 0.927474 0.773510 255 255 0 
2.025422 0.947868 0.773510 255 255 0 
2.015800 0.968166 0.773511 255 255 0 
2.005972 0.988367 0.773510 255 255 0 
1.995940 1.008467 0.773511 255 255 0 
1.985710 1.028466 0.773511 255 255 0 
1.975281 1.048361 0.773510 255 255 0 
1.964648 1.068150 0.773511 255 255 0 
1.953821 1.087831 0.773510 255 255 0 
1.942793 1.107404 0.773511 255 255 0 
1.195669 -0.679219 0.773511 255 255 0 
1.202433 -0.667173 0.773510 255 255 0 
1.209075 -0.655062 0.773510 255 255 0 
1.215593 -0.642883 0.773511 255 255 0 
1.221991 -0.630640 0.773510 255 255 0 
1.228263 -0.618332 0.773510 255 255 0 
1.234410 -0.605963 0.773511 255 255 0 
1.240437 -0.593533 0.773511 255 255 0 
1.246337 -0.581042 0.773510 255 255 0 
1.252111 -0.568493 0.773510 255 255 0 
1.257758 -0.555887 0.773510 255 255 0 
1.263276 -0.543224 0.773511 255 255 0 
1.268669 -0.530506 0.773511 255 255 0 
1.273937 -0.517736 0.773511 255 255 0 
1.279073 -0.504912 0.773511 255 255 0 
1.284080 -0.492038 0.773511 255 255 0 
1.288957 -0.479114 0.773511 255 255 0 
1.293705 -0.466143 0.773511 255 255 0 
1.298323 -0.453123 0.773511 255 255 0 
1.302809 -0.440058 0.773511 255 255 0 
1.307164 -0.426949 0.773511 255 255 0 
1.311387 -0.413797 0.773511 255 255 0 
1.315477 -0.400602 0.773511 255 255 0 
1.319436 -0.387368 0.773511 255 255 0 
1.323260 -0.374095 0.773511 255 255 0 
1.326951 -0.360783 0.773511 255 255 0 
1.330508 -0.347435 0.773511 255 255 0 
1.333932 -0.334053 0.773511 255 255 0 
1.337218 -0.320637 0.773511 255 255 0 
1.340371 -0.307187 0.773511 255 255 0 
1.343390 -0.293707 0.773511 255 255 0 
1.346272 -0.280198 0.773511 255 255 0 
1.349021 -0.266660 0.773510 255 255 0 
1.351630 -0.253095 0.773511 255 255 0 
1.354105 -0.239505 0.773511 255 255 0 
1.356444 -0.225891 0.773511 255 255 0 
1.358644 -0.212253 0.773510 255 255 0 
1.360708 -0.198594 0.773511 255 255 0 
1.362633 -0.184916 0.773511 255 255 0 
1.364421 -0.171219 0.773511 255 255 0 
1.366073 -0.157504 0.773511 255 255 0 
1.367587 -0.143773 0.773511 255 255 0 
1.368961 -0.130028 0.773511 255 255 0 
1.370199 -0.116270 0.773511 255 255 0 
1.371295 -0.102501 0.773511 255 255 0 
1.372258 -0.088720 0.773511 255 255 0 
1.373080 -0.074931 0.773511 255 255 0 
1.373765 -0.061134 0.773511 255 255 0 
1.374309 -0.047331 0.773511 255 255 0 
1.374713 -0.033523 0.773511 255 255 0 
1.374982 -0.019713 0.773511 255 255 0 
1.375111 -0.005899 0.773511 255 255 0 
1.375100 0.007914 0.773511 255 255 0 
1.374951 0.021727 0.773511 255 255 0 
1.374663 0.035538 0.773511 255 255 0 
1.374236 0.049345 0.773511 255 255 0 
1.373673 0.063147 0.773511 255 255 0 
1.372969 0.076943 0.773511 255 255 0 
1.372125 0.090731 0.773511 255 255 0 
1.371147 0.104509 0.773510 255 255 0 
1.370027 0.118278 0.773511 255 255 0 
1.368770 0.132034 0.773511 255 255 0 
1.367375 0.145777 0.773511 255 255 0 
1.365840 0.159505 0.773511 255 255 0 
1.364171 0.173218 0.773510 255 255 0 
1.362360 0.186912 0.773511 255 255 0 
1.360414 0.200588 0.773511 255 255 0 
1.358330 0.214244 0.773511 255 255 0 
1.356108 0.227878 0.773511 255 255 0 
1.353751 0.241489 0.773511 255 255 0 
1.351257 0.255076 0.773511 255 255 0 
1.348627 0.268637 0.773511 255 255 0 
1.345862 0.282170 0.773511 255 255 0 
1.342959 0.295675 0.773511 255 255 0 
1.339921 0.309151 0.773510 255 255 0 
1.336747 0.322595 0.773511 255 255 0 
1.333440 0.336007 0.773511 255 255 0 
1.329998 0.349385 0.773511 255 255 0 
1.326420 0.362727 0.773511 255 255 0 
1.322710 0.376033 0.773511 255 255 0 
1.318866 0.389301 0.773511 255 255 0 
1.314889 0.402530 0.773510 255 255 0 
1.310780 0.415718 0.773510 255 255 0 
1.306537 0.428864 0.773511 255 255 0 
1.302163 0.441967 0.773511 255 255 0 
1.297657 0.455025 0.773510 255 255 0 
1.293021 0.468038 0.773511 255 255 0 
1.288253 0.481002 0.773511 255 255 0 
1.283358 0.493919 0.773510 255 255 0 
1.278332 0.506786 0.773510 255 255 0 
